ply
            format ascii 1.0
            element vertex 19249
            property float x
            property float y
            property float z
            property uchar blue
            property uchar green
            property uchar red
            end_header
-17.463365 -99.240398 -57.733762 126 98 94
-49.640021 -333.471680 -873.190212 26 16 14
-11.522323 -12.412623 133.198917 42 30 42
-49.850217 -351.111555 -872.727966 32 20 19
-22.272551 -22.278868 -77.991086 138 108 99
-22.272551 -22.278868 -77.991086 138 108 99
-22.272551 -22.278868 -77.991086 138 108 99
-56.629735 -318.887115 -870.879364 49 32 25
-56.856048 -332.239461 -871.198273 45 31 25
-56.872469 -335.969186 -870.693111 42 29 22
-56.950909 -344.482946 -870.714951 39 25 20
-56.911939 -348.797965 -869.910431 38 28 23
-21.692441 -191.381371 -126.028693 83 45 36
-21.587722 -102.997613 -63.027060 68 40 28
-21.643539 -105.996335 -62.302214 68 41 30
-62.743688 -487.924814 -912.318516 146 116 99
-23.781791 -184.816051 -120.673609 132 93 80
-26.037911 -53.097451 -74.205536 158 115 98
-25.673476 -76.930976 -70.015311 169 125 108
-29.283980 -152.400768 -91.526186 131 94 81
-12.814637 12.317851 186.069620 101 69 56
-31.432185 -122.316051 -62.487864 26 21 23
-37.266091 -21.611376 -89.532220 34 20 19
-38.097054 -20.544809 -90.659964 145 109 92
-38.036746 -31.320831 -89.459425 131 96 80
-136.210465 -442.756939 -1210.991001 36 23 23
-39.299065 -36.109689 -89.911097 31 22 19
-146.104145 -653.168821 -1291.234684 35 23 21
-39.806265 -31.563795 -90.755475 128 95 77
-39.806265 -31.563795 -90.755475 128 95 77
-40.284607 -27.912673 -91.892046 129 101 90
-144.626462 -449.258900 -1201.474094 29 20 18
-148.718786 -620.218706 -1269.287968 125 101 93
-149.997008 -640.595865 -1281.579304 112 86 75
-25.294629 36.115903 210.273814 128 95 77
-154.070544 -641.989613 -1272.130489 31 17 17
-40.219274 -101.272798 -78.964698 151 121 108
-40.767539 -104.448211 -79.292232 103 79 79
-44.015238 -25.238657 -95.324355 114 87 75
-41.982523 -98.024219 -79.771399 115 105 109
-167.490423 -609.355354 -1245.951843 42 26 26
-164.057004 -407.372189 -1177.952576 52 34 27
-169.001389 -662.582970 -1260.544682 33 19 18
-44.661596 -72.787452 -87.807161 47 29 24
-44.661596 -72.787452 -87.807161 47 29 24
-43.639261 -98.527181 -81.884170 139 111 97
-45.163348 -60.411608 -90.446591 152 121 111
-43.682736 -108.126020 -81.008470 151 115 98
-44.528434 -110.241771 -78.580463 67 51 46
-45.868513 -102.033854 -83.481872 146 116 99
-47.458142 -113.046169 -81.709999 58 46 59
-54.335326 -155.933142 -111.985993 133 94 79
-26.677880 14.059718 137.967002 158 116 100
-59.803998 -142.868757 -95.236099 26 16 13
4.834273 93.772250 357.006288 47 28 35
-39.742449 -0.164194 43.152735 128 95 77
-62.231147 -140.270603 -96.955448 29 16 11
-63.235420 -66.667539 -104.235470 114 87 74
-62.554127 -142.973709 -95.631146 109 75 53
-63.223737 -76.924646 -100.636911 66 47 45
-64.405119 -67.972732 -105.182493 31 21 18
-63.177407 -98.469669 -94.577730 52 43 55
-65.483081 -70.462608 -105.601394 141 112 98
-66.017300 -67.368490 -106.384802 111 85 82
-64.799339 -112.343335 -97.567201 26 16 14
-64.799339 -112.343335 -97.567201 26 16 14
-66.052866 -70.518470 -105.742049 101 78 79
-66.267538 -76.776570 -104.875982 81 64 70
-65.815800 -102.098405 -100.073993 143 114 103
-29.159451 35.306254 201.623392 84 65 56
-66.383708 -108.251941 -99.985534 116 89 85
-66.947430 -77.759999 -103.771341 81 74 80
-66.520232 -107.940042 -100.052392 97 75 76
-58.281410 -50.435466 -47.122127 47 27 25
-33.282706 17.775609 171.766746 130 99 84
-68.815172 -71.400660 -104.278171 71 52 44
-70.096266 -65.448797 -110.952270 52 34 27
-70.053518 -65.256983 -110.503352 52 34 27
-70.918322 -91.693282 -107.501101 149 112 95
-70.964158 -111.481333 -101.878655 129 95 80
-87.166709 -176.625514 -152.269185 43 24 19
-75.442487 -126.194060 -93.978697 19 16 26
-81.493264 -62.822944 -112.973201 48 29 24
-81.485182 -73.110819 -111.119235 46 27 24
-81.553173 -75.788295 -110.782588 52 29 24
-81.572634 -79.863524 -110.007501 43 24 21
-81.670111 -101.488471 -106.129849 45 27 25
-82.015288 -63.499516 -110.935032 79 57 45
-81.670642 -107.409680 -105.065560 43 25 22
-81.740785 -109.576130 -104.930294 43 25 21
-81.696630 -111.477208 -104.391086 45 26 24
-81.943250 -67.447877 -109.675968 69 50 36
-82.012719 -71.744657 -109.387183 92 68 55
-82.330519 -65.948784 -111.400759 112 83 70
-82.427257 -61.516547 -112.195539 133 100 82
-81.726974 -116.126263 -103.443527 44 24 22
-81.989837 -76.062459 -107.792795 86 63 51
-82.439774 -78.864479 -109.373498 104 78 63
-82.334256 -102.400875 -105.014837 96 73 61
-82.277811 -106.205714 -103.934407 88 64 55
-82.291824 -110.212684 -103.259981 77 54 42
-83.086544 -72.613466 -108.893776 46 26 23
-83.268839 -111.018872 -102.098775 41 23 21
-83.275419 -79.766363 -104.491138 67 41 29
-84.031016 -65.559900 -109.212792 140 106 88
-84.228176 -61.448443 -110.310209 139 104 88
65.077686 207.310700 635.929966 159 118 97
-84.948409 -72.404766 -106.622839 42 22 20
-84.859312 -78.647512 -104.684138 48 27 21
-85.193998 -100.828326 -102.141035 39 20 17
-85.524923 -60.464567 -107.163954 129 96 80
-85.471976 -62.568909 -105.777931 68 50 38
-85.725409 -73.464853 -105.120742 124 91 75
-85.486042 -74.970990 -102.618992 81 62 52
-85.958123 -99.494964 -101.138377 119 88 75
-86.228156 -61.436015 -106.201434 48 27 21
-85.844827 -104.785371 -98.534042 87 65 56
-86.213726 -80.372411 -102.291858 52 34 27
-85.937613 -113.719833 -97.076726 82 59 51
-86.416662 -57.967448 -103.405821 43 35 47
-86.409283 -109.995663 -97.110814 39 24 22
-51.285678 12.629661 74.944556 109 77 59
-51.285678 12.629661 74.944556 109 77 59
-103.303742 -140.581250 -85.982788 63 30 21
-103.557265 -141.361845 -85.799956 86 54 38
-104.344273 -142.097867 -85.616410 114 79 64
-104.316068 -139.744306 -85.845965 109 77 59
-103.755224 -144.589674 -80.952847 63 44 34
-56.916237 13.264869 78.318202 40 70 64
-105.992401 -54.077518 -81.711072 64 55 57
-105.653632 -53.580010 -80.082941 64 55 57
-105.830359 -92.733037 -73.936141 59 41 48
-106.533360 -86.767501 -76.813668 159 118 96
-107.693386 -115.368795 -69.773179 36 28 40
-108.337438 -112.180567 -70.838892 128 96 82
-108.429599 -67.766333 -76.792198 62 37 34
-108.429599 -67.766333 -76.792198 62 37 34
-108.979332 -96.832240 -72.464395 69 43 38
-108.933306 -95.319265 -72.480005 72 44 40
-108.833420 -112.985587 -66.970497 33 18 18
-109.328890 -58.755207 -77.615070 131 98 82
-109.488785 -69.164556 -75.891620 148 110 91
-110.670209 -95.371044 -70.848244 47 26 19
-110.595214 -106.139469 -68.577564 30 16 16
-111.202264 -58.483559 -75.641501 154 117 97
-111.297309 -69.016713 -73.953855 159 118 97
-111.158192 -59.613556 -75.090039 156 120 96
-28.448907 39.431867 228.560376 159 118 97
-112.154007 -65.805978 -73.239380 62 34 31
-112.301755 -55.979806 -75.458187 33 17 14
-112.063694 -56.991804 -74.459970 35 17 14
-112.256730 -69.915968 -72.643435 59 34 30
-112.932396 -68.283838 -71.413541 149 107 89
-112.984776 -54.318696 -74.086958 148 108 92
-113.402987 -107.113969 -64.912665 152 114 96
-113.402987 -107.113969 -64.912665 152 114 96
-112.686026 -74.421853 -68.697441 73 52 47
-113.411152 -56.463802 -71.843433 31 21 15
-113.984776 -107.990825 -63.548040 33 17 15
-113.984776 -107.990825 -63.548040 33 17 15
-29.185408 38.660240 226.633859 57 34 29
-29.185408 38.660240 226.633859 57 34 29
-113.346922 -75.196964 -67.443103 47 36 45
-113.346922 -75.196964 -67.443103 47 36 45
-113.738728 -113.693845 -61.065120 42 34 44
-114.461660 -7.507439 -77.640986 24 19 20
-114.704883 -14.006758 -76.807874 45 32 42
-115.841246 -9.233366 -75.949991 130 90 75
-116.030920 -5.809476 -76.453412 26 21 22
-117.600703 -4.123611 -74.641263 21 20 20
-120.270002 -3.891890 -72.647536 122 85 71
-119.622326 -0.529223 -70.318568 19 15 16
-127.543223 -110.358179 -61.704695 165 121 105
-127.831805 -0.846687 -69.760942 134 85 69
-152.992046 -169.430983 -98.759526 132 95 76
-154.570723 -169.200265 -99.583566 133 93 78
48.046702 114.478290 411.809301 74 54 42
-139.849591 -112.356639 -56.948560 39 29 33
-137.041104 -9.952937 -72.657758 28 20 26
-138.901615 -25.180244 -72.853285 31 20 19
48.812103 116.127229 412.290239 58 35 24
-141.483521 -93.700373 -63.178569 55 32 29
-139.301598 -24.508959 -72.598481 53 34 24
-139.257085 -14.321062 -74.331737 40 28 20
38.015756 89.275378 389.983153 41 24 15
-143.065035 -112.243450 -60.738206 148 109 87
-142.800128 -96.959573 -61.233670 115 77 72
-142.474318 -12.323612 -77.471077 97 67 53
-142.449415 -31.458297 -71.981806 62 42 35
-142.449415 -31.458297 -71.981806 62 42 35
-143.508971 -25.604579 -74.993050 30 18 14
-144.816935 -65.233701 -67.949277 95 71 57
50.557923 111.018324 412.159348 63 38 32
-26.936668 37.752980 200.908160 136 101 88
-26.936668 37.752980 200.908160 136 101 88
-147.054207 -92.778504 -65.444016 136 102 95
-54.775119 13.884550 166.734385 50 29 25
-146.700764 -66.676110 -70.095307 57 37 35
-147.860861 -34.409869 -75.972641 22 16 18
-149.787247 -11.437137 -81.161481 26 20 24
-151.991653 -3.643825 -81.217474 28 21 28
-151.944017 -2.879998 -81.049806 29 24 31
-160.319221 -109.417284 -67.156023 154 112 93
-176.284862 -109.411347 -77.209365 134 96 84
-181.887162 -143.597579 -76.557130 215 152 124
-188.736701 -148.100603 -87.876076 213 152 122
-176.377118 -27.602959 -91.844797 57 40 29
-176.113379 -29.474804 -90.616405 95 69 55
-176.113379 -29.474804 -90.616405 95 69 55
-176.773536 -17.692178 -94.323403 57 38 30
-179.060304 -63.693708 -86.860383 130 94 72
-181.748986 -110.396659 -80.710006 134 98 83
-178.516293 -15.813495 -94.866651 99 68 54
-183.795071 -113.800323 -80.436581 110 81 66
-183.795071 -113.800323 -80.436581 110 81 66
-183.056664 -59.980035 -89.991558 63 38 32
-189.201117 -152.878010 -77.915007 213 153 123
-184.180713 -78.306526 -86.158776 21 17 22
-184.180713 -78.306526 -86.158776 21 17 22
-186.718690 -95.252520 -85.076755 49 36 42
-200.942612 -149.638760 -84.106016 56 31 14
-45.791298 11.405058 186.800325 248 185 163
-31.612483 37.379003 206.979895 38 24 21
-52.356225 23.057531 184.309745 47 36 45
-47.716373 33.996278 193.248045 50 21 17
-39.031142 34.774482 208.671451 102 73 63
-34.787843 28.555667 220.440030 71 40 40
-48.550802 24.060017 214.721751 207 146 119
104.062188 -5.502009 24.085322 76 57 50
103.981006 -8.665777 24.775124 71 52 47
106.759763 -50.630212 34.367132 28 12 11
106.024182 -45.619386 33.506703 135 99 90
106.024182 -45.619386 33.506703 135 99 90
215.468621 -110.661757 -120.821130 35 20 20
361.512184 -199.237180 -325.135732 39 21 23
104.435706 -42.817330 34.248030 42 23 13
103.347874 -28.359652 30.625108 70 41 37
105.307877 -55.055410 36.870968 80 73 75
103.629696 -34.942564 32.455251 125 86 71
104.386806 -41.726109 31.408265 27 18 15
104.961264 -51.512790 33.506015 19 13 10
-424.467468 365.318823 755.056715 119 103 102
99.879849 0.788668 22.275719 105 69 59
99.879849 0.788668 22.275719 105 69 59
103.494310 -42.376953 31.243479 129 96 88
98.777401 12.930770 19.283475 78 63 66
99.687922 -0.940690 22.436790 119 80 65
99.687922 -0.940690 22.436790 119 80 65
105.924654 -89.908284 43.467680 85 77 81
102.901888 -56.652164 35.676295 145 104 84
-422.143126 369.872999 757.088327 105 68 49
102.135849 -54.910779 33.830905 21 18 26
98.786956 -14.863463 24.333031 125 87 75
98.698574 -15.893096 24.610840 121 84 69
98.698574 -15.893096 24.610840 121 84 69
100.578332 -43.088430 31.005916 70 46 45
-417.470980 372.778487 756.934071 156 122 106
100.760615 -56.213111 33.756778 47 31 33
100.607705 -54.889673 33.230257 64 41 41
96.692735 2.953329 17.509288 9 9 3
97.575921 -20.679271 24.258435 50 30 21
98.494494 -47.503653 29.456943 151 108 91
95.598346 -7.916228 20.418420 34 29 39
96.958607 -14.940125 20.184298 91 70 65
96.218532 -9.623561 19.419627 111 77 70
96.218532 -9.623561 19.419627 111 77 70
97.072494 -17.927407 20.550521 87 66 55
96.427846 -11.699317 18.260065 17 11 9
94.462585 -6.594872 19.292079 120 84 68
-95.522487 98.567480 315.141177 51 44 57
99.962950 -91.610956 39.084238 51 46 56
95.181352 -10.037298 18.264110 121 87 71
94.849151 -17.702292 19.393480 25 19 15
98.588055 -92.838204 38.925293 88 57 53
94.001430 -10.220840 17.386697 120 83 65
-100.608444 61.107886 338.975644 51 17 12
91.616094 5.474640 14.756142 20 8 8
91.742706 4.684079 14.686623 152 93 73
93.842787 -11.969560 16.438086 20 12 8
49.416313 -14.859572 96.831560 124 93 84
95.126086 -55.672044 28.609109 41 36 43
95.126086 -55.672044 28.609109 41 36 43
91.371989 3.844042 14.591041 52 17 4
94.414437 -41.846284 23.542812 26 20 15
92.648166 -13.844940 16.589609 94 67 59
94.514871 -45.524403 24.125250 24 18 14
92.657036 -15.450485 16.763179 88 69 64
92.728466 -17.118868 16.942355 89 66 64
-310.646653 217.622471 669.062233 27 17 14
94.557726 -52.962232 25.407919 19 14 11
94.519919 -51.249832 24.752431 143 105 85
91.492373 -13.489684 15.983722 70 60 69
91.492373 -13.489684 15.983722 70 60 69
94.576764 -94.012159 38.213769 152 109 92
93.911988 -52.298182 24.790992 23 17 11
91.520822 -17.026296 16.502593 68 59 71
93.873298 -54.900801 25.286707 53 44 40
92.950547 -41.289753 21.750507 30 17 11
-307.306719 236.630201 662.837076 147 111 90
91.010886 -15.740193 15.474436 105 80 65
90.952373 -17.294772 15.824492 101 76 64
90.430170 -10.581419 14.460616 126 90 77
92.390752 -45.929268 21.775725 18 17 17
89.970875 -15.123469 15.216249 15 9 5
91.794020 -43.680266 21.108460 23 15 16
93.114632 -93.692607 34.337997 90 60 45
90.869445 -41.857475 19.533513 102 87 89
90.869445 -41.857475 19.533513 102 87 89
90.735161 -44.486761 20.212103 96 82 83
90.735161 -44.486761 20.212103 96 82 83
-401.133299 379.553056 805.695152 38 33 45
90.758288 -47.912884 20.750268 95 79 82
90.758288 -47.912884 20.750268 95 79 82
88.066679 -10.978029 12.620459 132 95 77
-301.581645 247.880888 664.589691 39 34 49
-301.660872 242.489767 667.126942 92 80 84
88.599038 -18.243720 13.279848 16 12 10
82.671255 -41.294187 31.898937 143 108 99
-272.164583 137.335658 648.569727 129 97 87
-406.396914 394.162798 823.841667 108 66 51
86.860996 -14.738436 11.737683 101 75 69
479.207516 -336.596131 -636.630535 17 12 13
86.862975 -16.412956 11.854018 84 64 62
88.956916 -53.870553 20.559207 22 16 13
86.798167 -17.999037 12.224090 86 65 63
87.611157 -41.110069 17.534669 140 101 90
87.611157 -41.110069 17.534669 140 101 90
65.723795 -26.779297 55.212915 137 103 88
60.775232 -89.539582 86.138296 245 185 161
87.729347 -48.275524 18.623063 139 106 91
87.832320 -52.304918 19.106956 149 108 94
87.307853 -45.446369 17.762281 42 22 14
83.625495 2.658095 8.290492 13 8 6
84.704894 -21.024498 14.067285 19 19 30
84.704894 -21.024498 14.067285 19 19 30
-397.625542 409.668827 816.829109 108 71 53
82.923174 10.255902 6.068703 91 76 81
-398.438787 415.113497 816.931152 153 116 97
86.584896 -54.174197 18.617573 21 16 10
465.922976 -325.253677 -644.494104 26 19 20
87.665141 -68.350655 21.077521 162 119 102
34.760785 -36.428598 113.477170 85 77 81
119.452393 -173.784041 -11.206525 247 185 162
81.362301 -7.844661 9.073871 138 96 78
83.673120 -57.358474 19.187409 40 36 47
83.673120 -57.358474 19.187409 40 36 47
-386.991358 393.165016 831.672955 116 72 60
-854.035568 930.649757 1646.281624 153 116 97
76.290560 11.370843 2.903188 14 10 4
-379.543710 392.168665 836.366177 149 115 102
-60.823977 51.806378 278.533125 27 15 12
-60.823977 51.806378 278.533125 27 15 12
75.032312 8.413771 1.110301 129 93 76
73.217022 8.690348 3.874749 129 93 76
76.330584 -0.660079 -0.692009 136 97 79
74.618959 -0.008556 1.808299 136 97 79
79.098755 -95.459533 23.419476 92 63 56
74.919581 -19.100615 5.129249 103 79 78
74.979150 -23.830009 6.009099 97 64 52
333.072019 -142.516685 -532.036972 100 79 75
73.677319 -4.311075 -0.394303 128 95 82
75.708729 -58.087415 12.823617 118 85 75
73.920858 -22.641091 4.609681 37 29 39
75.321054 -60.802335 14.030914 151 109 93
75.157106 -59.726220 13.197693 83 56 49
73.726118 -14.740077 1.270293 106 79 62
75.362056 -55.915207 11.346444 102 89 91
76.369339 -102.137411 24.198750 106 72 59
73.795098 -10.009640 -1.069272 15 10 6
73.833686 -13.440761 -0.498026 12 10 10
72.590935 -26.388991 6.435005 149 109 93
72.612417 -4.561945 -1.457697 130 95 77
325.000882 -114.168739 -535.958004 136 102 88
326.722860 -121.759951 -542.708826 63 49 45
71.960050 -4.871504 -1.818798 84 52 37
72.147238 -8.949034 -1.059777 31 23 18
73.503768 -44.660583 7.293891 39 28 21
-7.716411 12.977988 145.378256 63 45 45
73.778516 -52.173257 8.054167 20 16 12
73.897868 -56.042665 8.567857 21 14 13
69.795626 3.722392 -2.631527 136 96 78
71.214992 -6.729596 -2.892613 12 7 8
73.378390 -55.388534 7.907443 21 14 12
73.247546 -55.288947 7.861556 25 14 13
70.943934 -13.410245 -1.145727 9 9 9
71.967757 -62.908798 12.670611 159 116 99
70.236278 -4.809465 -3.278963 123 90 78
70.793027 -12.698156 -2.118497 13 9 9
72.853231 -57.728964 8.076386 63 45 45
70.733631 -10.300189 -2.907608 17 11 7
70.222497 -8.655814 -3.258077 97 73 63
70.114887 -15.110447 -1.024875 102 76 66
73.180813 -95.002079 18.316188 51 42 51
73.180813 -95.002079 18.316188 51 42 51
393.362451 -304.120231 -665.510893 22 15 14
70.152557 -16.743827 -1.838410 109 81 73
70.140010 -18.366025 -1.562106 105 80 69
69.747823 -13.347703 -2.619405 87 66 66
70.073044 -19.912353 -1.208763 106 79 73
321.617770 -123.466313 -562.493753 90 77 85
70.159382 -47.662026 6.296898 24 20 21
70.353323 -64.205664 11.894569 161 119 101
68.848389 -8.305898 -3.317180 89 76 81
68.848389 -8.305898 -3.317180 89 76 81
69.049817 -12.201311 -2.955046 80 70 73
69.049817 -12.201311 -2.955046 80 70 73
388.330126 -302.279115 -673.527527 107 90 91
388.330126 -302.279115 -673.527527 107 90 91
68.299502 -12.046741 -3.749538 106 80 74
70.295644 -52.462715 4.415107 107 85 79
387.800264 -313.696098 -671.031427 104 85 86
67.807949 -5.157253 -5.340242 132 97 88
67.511189 -10.495253 -4.129183 82 65 53
42.192292 -85.194266 81.945217 247 185 162
67.859602 -12.197420 -4.449911 82 65 53
388.816762 -363.663340 -662.781096 39 34 49
67.878205 -15.595968 -3.565898 112 82 68
67.410940 -23.428491 -0.103729 32 27 40
67.532891 -10.661846 -4.997399 11 9 9
68.094498 -48.506966 5.045593 139 109 97
385.261011 -314.614868 -675.185156 130 105 96
22.441404 -14.715067 104.980981 84 78 81
22.441404 -14.715067 104.980981 84 78 81
66.672140 -5.346981 -6.177461 140 106 89
303.718591 -364.593768 -464.534140 107 69 51
306.266546 -377.240849 -467.444134 108 71 53
68.551427 -51.596373 3.491200 45 22 13
382.385111 -307.920194 -680.713940 35 23 22
382.385111 -307.920194 -680.713940 35 23 22
301.864934 -362.005830 -465.996838 106 68 50
66.030544 -5.791893 -6.479937 80 50 38
382.155752 -322.135401 -677.963018 35 25 22
381.977534 -336.790419 -675.265074 21 15 13
69.376272 -85.492051 10.641154 155 121 109
67.049187 -44.109932 0.606087 149 111 99
67.409712 -56.069547 3.000332 35 18 12
65.127641 -22.449026 -3.427611 42 30 31
377.468657 -345.034266 -677.959681 149 113 94
303.067279 -139.744139 -560.932159 35 22 19
65.207845 -15.176022 -6.730165 20 15 12
302.060628 -119.291377 -566.050959 129 97 87
5.609249 -14.493495 142.151976 85 77 81
64.339072 -15.975758 -5.861530 107 80 69
66.352016 -58.707464 3.002138 52 37 36
66.352600 -58.177334 2.800249 27 14 12
373.386836 -309.515834 -688.808060 34 23 18
373.386836 -309.515834 -688.808060 34 23 18
301.609778 -142.584562 -562.852097 107 77 70
296.589804 -393.483996 -468.952513 39 30 37
94.758171 -175.845206 -31.689274 74 45 38
64.257669 -19.159639 -6.234283 104 78 71
61.895049 8.764138 -10.241870 23 19 27
66.727173 -90.263563 9.717408 113 76 56
290.618253 -354.453611 -477.168179 116 72 60
65.769172 -85.939646 7.749344 156 122 106
65.751255 -88.750052 8.270242 154 118 101
62.385815 -24.214126 -4.252645 32 28 40
65.842885 -92.292422 8.758821 158 119 103
63.057822 -60.453689 2.254774 43 37 51
91.055423 -177.414334 -33.534926 254 198 177
61.142296 -25.697368 -5.066469 95 65 58
284.295988 -361.513233 -482.135534 107 69 59
156.353819 -206.777120 -197.596323 101 62 49
-516.731405 676.778936 1286.430931 81 48 35
63.650256 -86.336797 5.916227 158 124 110
61.716497 -61.731219 2.010735 87 63 60
59.717703 -0.149747 -13.954687 142 100 85
60.966754 -35.310709 -6.775074 154 111 93
58.612680 -15.862137 -8.867227 148 106 89
-130.737019 170.753264 440.484142 51 44 57
409.052277 -479.227591 -818.935299 167 123 107
58.808333 -53.433514 -2.805346 160 119 100
57.854915 -90.585589 5.157707 164 122 103
57.854915 -90.585589 5.157707 164 122 103
55.255902 -10.586982 -14.954786 103 85 91
57.569581 -100.809467 6.401700 150 113 94
54.660594 -25.403619 -10.611351 36 32 44
54.402035 -12.598343 -15.833586 21 14 11
79.911315 -36.817071 -82.086223 136 102 79
51.805049 -73.504770 9.299691 163 120 104
53.548425 -7.296978 -16.955423 136 102 88
53.982723 -21.761145 -13.851173 59 34 27
54.802346 -62.920898 -3.445598 104 73 60
53.424448 -17.683654 -15.009019 111 81 69
53.044462 -9.229869 -17.038143 63 49 45
51.781839 -10.250299 -13.861032 63 49 45
52.827621 -24.429691 -12.934703 26 21 26
290.956926 -283.250999 -638.780022 24 16 15
76.723891 -36.404437 -83.015364 132 97 78
51.896828 -9.446827 -17.996605 13 11 10
51.896828 -9.446827 -17.996605 13 11 10
291.688538 -296.752477 -637.890959 23 18 15
77.403343 -40.815464 -83.878905 120 87 70
291.574717 -309.907389 -635.660362 19 15 16
51.629263 -18.552189 -16.107093 51 27 26
53.852069 -92.175800 -0.891413 114 76 57
55.554295 -56.560111 -17.478630 36 19 11
51.062715 -11.448573 -18.674064 100 74 69
51.062715 -11.448573 -18.674064 100 74 69
76.562321 -71.016663 -76.695240 150 116 100
76.562321 -71.016663 -76.695240 150 116 100
53.532207 -85.740560 -3.271092 113 69 56
73.576331 -172.935951 -36.707970 255 201 180
52.601123 -96.950811 1.611510 54 49 61
49.258173 -8.731911 -18.640265 90 77 85
72.900087 -174.829721 -39.838499 98 50 29
48.752725 -15.875165 -16.315822 87 73 81
48.752725 -15.875165 -16.315822 87 73 81
51.597786 -86.435550 -3.844875 103 67 48
51.962978 -94.499153 -2.963061 153 116 97
51.772523 -92.697233 -3.112885 108 71 53
75.191510 -122.463727 -68.013191 107 69 59
51.178479 -90.493166 -3.973041 101 62 49
48.325047 -26.219016 -15.511456 33 28 42
48.879480 -23.154631 -18.673788 120 88 70
49.350271 -47.454903 -13.101497 107 90 91
50.642174 -88.163024 -4.500657 158 125 111
277.060938 -318.914127 -644.639015 103 81 82
48.191202 -22.398525 -18.838918 57 31 25
49.271944 -60.262662 -11.146273 92 80 84
49.271944 -60.262662 -11.146273 92 80 84
72.589839 -192.242622 -43.673143 253 204 186
72.073132 -189.398134 -43.070704 254 203 185
71.987844 -180.806398 -45.902798 254 201 180
47.429731 -11.970859 -21.046372 96 70 61
47.268721 -14.986892 -19.925697 98 72 58
305.377007 -475.457573 -694.642258 100 84 88
48.513606 -53.942031 -12.734652 126 101 92
46.890664 -8.613014 -22.009213 87 53 42
13.309714 -32.930556 91.932666 119 103 102
71.104187 -181.798303 -45.462486 254 202 180
70.972431 -182.997262 -45.048174 254 203 178
66.980904 -166.047919 -38.157263 105 70 56
31.625575 -8.050375 25.255138 56 35 27
47.002777 -22.563183 -19.709522 57 31 23
47.002777 -22.563183 -19.709522 57 31 23
70.386797 -180.748022 -45.559576 208 149 128
70.472395 -182.251167 -45.358971 191 130 108
70.472395 -182.251167 -45.358971 191 130 108
70.329309 -184.608710 -45.002249 203 143 124
46.328479 -12.113921 -21.854836 90 69 59
46.407413 -15.251727 -21.387587 94 71 57
47.684059 -52.487081 -14.055306 35 25 22
46.192014 -10.575244 -22.791387 63 46 38
47.620088 -56.188804 -13.332143 21 15 13
68.855155 -181.471670 -43.729481 254 203 182
68.855155 -181.471670 -43.729481 254 203 182
68.231565 -184.438097 -41.922888 255 204 179
45.710322 -11.466381 -22.671984 35 22 19
12.644726 -37.527841 92.165911 113 76 56
266.118383 -289.182115 -650.590944 28 20 21
66.492432 -172.601354 -40.734005 81 49 31
67.307597 -178.928101 -42.159516 172 108 93
45.221171 -8.357372 -23.511763 129 97 87
67.312139 -183.190465 -41.442645 165 100 81
45.141426 -13.844202 -23.168798 102 77 68
45.489520 -23.180626 -22.101694 49 28 22
44.608858 -9.822311 -23.490895 53 33 34
44.539177 -21.811010 -20.224120 49 28 22
-99.055612 110.680985 410.946941 37 18 15
65.414965 -181.811261 -39.575210 254 203 184
65.025264 -183.411217 -38.204423 252 202 181
68.579429 -178.468680 -51.566571 78 49 47
64.019114 -183.022225 -37.774786 166 103 84
-253.763938 288.467407 871.268082 35 26 23
46.023306 -87.479317 -8.841848 112 74 59
46.080071 -93.571872 -7.732278 112 73 56
43.522069 -27.104393 -20.422292 32 27 43
5.331335 -25.002322 106.281662 107 67 52
45.056570 -86.083978 -9.692127 149 115 102
42.535552 -63.567668 -14.319931 41 35 50
41.097954 -64.766520 -14.382978 100 67 61
217.729688 -286.828256 -603.174448 164 121 103
6.021995 -36.411542 91.688937 164 122 103
-393.745232 319.963050 1480.439568 119 86 73
32.652885 -18.683207 -22.457303 63 46 34
43.547606 -140.510321 -30.337280 147 104 89
53.380615 -81.351525 -92.935592 47 42 45
188.105083 -250.841379 -580.291843 22 16 15
188.105083 -250.841379 -580.291843 22 16 15
33.800828 -62.057477 -24.458255 26 18 18
33.703241 -61.819160 -24.270245 26 17 18
215.852666 -297.163033 -687.520027 43 22 16
52.020007 -79.002744 -94.894528 32 18 18
33.724207 -95.288789 -18.396860 76 47 37
195.184112 -412.823915 -576.416445 68 41 29
51.164699 -82.304746 -94.185108 138 111 93
32.495272 -60.252857 -25.482693 147 113 97
32.986361 -98.024660 -18.005288 78 49 36
32.872310 -94.144410 -18.855220 79 48 34
53.056097 -130.380535 -89.318550 73 42 31
29.983023 6.213708 -37.093562 63 53 71
34.241730 -127.503490 -18.730658 47 25 20
-137.996960 191.195452 599.982119 28 21 20
-137.996960 191.195452 599.982119 28 21 20
181.195295 -268.449831 -589.442158 28 18 19
180.885828 -272.982764 -587.733650 29 19 16
33.214727 -128.540945 -17.377587 163 129 107
31.626257 -97.534657 -20.042925 153 115 97
31.127971 -89.448512 -21.040837 83 51 36
31.211808 -92.456257 -20.650028 84 54 38
31.929341 -128.745699 -15.436253 116 80 59
31.929341 -128.745699 -15.436253 116 80 59
177.131093 -260.529399 -592.518520 107 84 84
174.237335 -296.420503 -576.543570 43 37 52
0.321582 -14.648585 81.675410 126 101 92
181.559896 -382.191277 -590.922499 101 84 87
169.844115 -252.534509 -592.652321 23 18 14
169.844115 -252.534509 -592.652321 23 18 14
27.935913 -62.455094 -28.610817 23 18 17
99.502486 -162.195194 -317.167234 43 22 16
168.347323 -262.182903 -600.969410 140 111 95
168.512380 -273.004866 -599.831867 135 107 89
168.512380 -273.004866 -599.831867 135 107 89
167.982304 -284.382463 -594.937229 144 107 91
166.264689 -259.808946 -601.253510 40 21 18
166.476512 -270.675921 -600.383806 42 22 19
164.847088 -255.867243 -604.178619 37 28 22
26.519367 -91.100395 -25.354135 81 48 33
26.519367 -91.100395 -25.354135 81 48 33
25.513154 -64.104986 -28.187320 48 37 35
-87.747145 143.847585 426.701164 25 12 10
163.516223 -271.723270 -604.715776 46 34 28
170.613718 -418.281412 -601.608896 72 42 33
160.234225 -246.903443 -609.346914 51 44 56
21.347830 -67.614841 -30.456948 105 72 66
31.271696 -185.909760 -82.687658 255 201 180
16.385449 -68.287671 -34.564257 110 77 66
15.401599 -67.276621 -36.372861 46 38 49
15.401599 -67.276621 -36.372861 46 38 49
20.349510 -144.777358 -50.180143 140 99 85
-7.784643 -21.429402 72.468072 42 31 31
19.082712 -143.883383 -50.195670 152 111 92
13.646120 -90.508783 -35.717046 144 115 103
-99.790376 206.421256 540.734768 155 118 103
13.277328 -57.899410 -41.855261 43 22 16
-98.982209 199.975598 542.018032 25 12 10
11.043095 -67.377263 -39.640197 45 42 57
11.496516 -90.995181 -37.610424 150 122 111
11.334810 -96.511459 -36.306670 145 110 100
11.040691 -56.025678 -44.103786 107 84 84
10.740317 -67.959678 -40.443295 43 38 53
10.574146 -68.069279 -40.486270 43 37 52
10.887706 -96.529764 -37.112391 108 83 82
8.844860 -67.614371 -40.291536 44 38 52
8.882834 -53.539270 -44.724810 23 18 14
8.959423 -98.362392 -37.821344 61 35 28
8.634422 -60.252649 -45.361501 28 19 16
6.602398 -103.410959 -36.966348 48 37 45
5.961762 -60.088295 -47.618261 138 107 92
5.732152 -91.693890 -41.981119 142 113 102
5.279307 -51.170731 -48.179320 51 44 56
3.904111 0.249583 -52.218568 163 106 85
3.857112 -1.310247 -52.135676 166 107 89
4.092316 -105.462277 -39.375582 51 44 57
2.943542 -3.319603 -53.859520 70 36 25
2.910322 -19.631869 -54.517436 32 12 9
1.888344 -18.897140 -53.552032 119 86 73
-21.255970 13.070293 106.503630 151 111 92
-21.712784 13.408531 106.294680 63 46 34
-21.712784 13.408531 106.294680 63 46 34
-5.779897 -147.598529 -70.935762 141 99 79
-9.680333 -64.610767 -59.058774 167 123 107
-12.793748 -58.364993 -61.872977 105 96 98
-13.724120 -98.429066 -56.417781 59 37 28
-13.580191 -60.956669 -63.145608 19 14 13
-14.177854 -53.587800 -63.017964 54 45 57
-61.699516 88.771719 401.156425 138 107 98
-71.561712 171.892834 620.987892 138 107 98
-15.473498 -96.634895 -58.347309 44 23 17
-15.339221 -60.333580 -65.020484 27 12 12
-16.061707 -99.149543 -59.040964 51 31 22
-15.428200 -32.914016 -70.372397 24 19 17
-70.281678 185.234106 623.237085 36 24 22
-17.035688 -105.150938 -60.560763 124 94 90
-28.557473 -29.159856 90.363079 108 82 79
-17.035688 -105.150938 -60.560763 124 94 90
-17.202404 -100.587082 -60.869491 131 103 94
-18.716127 -94.566041 -60.553676 116 107 109
-19.450624 -72.074419 -63.805544 41 33 47
-21.452689 -71.227360 -67.043692 51 43 43
-60.739303 72.155368 327.806950 36 19 17
-46.603265 21.175154 158.313429 51 43 43
-22.156955 -80.007291 -70.369476 167 123 107
-22.296037 -186.022973 -120.925927 140 103 85
-33.526894 -28.027183 -40.216535 145 106 87
-53.428888 37.070274 213.911033 111 85 72
-39.556080 -84.549493 -76.536530 167 122 107
-40.132013 -98.352236 -79.443449 144 113 100
-40.320563 -71.131182 -84.908450 113 83 83
-41.988215 -100.379169 -78.842127 111 98 101
-52.814633 84.583479 385.327506 28 18 19
-43.437085 -60.259116 -89.240342 154 118 106
-43.437085 -60.259116 -89.240342 154 118 106
-44.778374 -106.454849 -82.261419 20 13 11
-46.681702 -97.436577 -83.798426 48 40 54
-56.370533 -186.979568 -843.850517 90 71 65
-44.161722 -17.414011 -36.214429 35 26 16
-54.158747 -69.491202 -94.464737 153 115 96
-57.359463 -142.608881 -98.840648 194 138 112
-62.587231 -108.669627 -95.867389 34 20 20
-63.429260 -62.495005 -103.739119 138 107 98
-65.893084 -107.925928 -99.651527 137 109 90
-64.383382 -64.599979 -105.950809 33 23 19
-66.433531 -105.594182 -100.320625 107 82 80
-65.483367 -67.131269 -106.356931 138 107 89
-56.801981 14.785598 153.759384 107 82 80
-49.905694 -9.402694 117.990649 94 79 82
-69.311619 -108.198595 -102.134192 104 79 67
-53.580272 46.726489 237.715602 86 70 55
-54.656184 38.496912 213.201666 20 16 15
-70.481050 -113.340020 -102.559447 31 20 15
-70.481050 -113.340020 -102.559447 31 20 15
-70.449048 -106.906402 -103.233385 40 24 17
-70.403421 -103.827453 -103.637946 38 23 18
-70.091790 -73.606825 -109.565413 36 25 19
-70.100009 -65.442115 -110.997665 45 31 24
-71.156520 -71.315467 -110.269392 132 104 88
-72.271281 -112.867451 -54.532737 64 40 37
-81.791174 -114.275825 -104.324591 38 23 20
-81.736881 -105.678558 -105.875587 43 25 22
-80.632538 -66.367936 -113.261819 130 100 91
-81.553566 -81.773001 -109.588397 32 18 19
-83.417338 -117.866921 -101.486218 38 22 16
-82.364565 -69.985086 -110.769486 110 83 67
-84.396797 -112.717736 -100.944221 131 95 79
-83.173615 -79.323727 -107.746089 47 27 21
-83.159161 -75.324368 -108.654094 52 30 23
-58.107513 12.381283 77.779031 6 2 29
-85.185188 -115.440321 -99.199617 47 27 23
-85.238767 -113.501298 -100.008512 39 20 20
-85.980499 -116.343093 -98.310667 95 72 57
-85.745186 -100.920093 -99.013114 77 54 42
-85.938811 -99.439305 -100.945687 112 84 70
-85.036492 -75.009787 -106.683540 33 17 17
-86.450118 -99.965209 -99.621177 52 33 26
-85.724205 -77.830315 -104.630315 97 73 60
-85.724270 -73.457849 -105.102038 123 89 72
-83.992630 -32.157472 -115.879989 80 57 45
-83.992630 -32.157472 -115.879989 80 57 45
-85.602617 -66.493821 -105.020058 70 53 38
-86.297685 -74.203306 -103.939044 45 26 21
-85.687417 -35.214952 -109.459341 43 32 25
-86.241972 -32.097954 -110.758579 29 17 15
-95.402157 -120.999908 -81.957871 106 71 58
-102.802610 -142.423606 -87.376869 113 85 64
-103.377128 -143.039656 -86.840361 51 23 16
-96.751612 -17.019233 -98.297912 27 15 12
-96.751612 -17.019233 -98.297912 27 15 12
-102.767587 -113.642561 -74.355531 149 106 88
-98.238283 -32.647470 -91.051090 133 94 78
-98.350924 -13.933657 -97.916120 122 86 66
-98.730087 -26.771659 -85.562438 65 33 27
-98.363519 -8.223467 -93.245804 116 82 66
-97.566861 -5.494026 -89.585298 13 12 11
-99.521905 -30.123091 -85.031140 41 28 21
-99.521905 -30.123091 -85.031140 41 28 21
-99.430597 -26.740351 -85.601473 53 26 23
-99.757308 -6.920790 -89.109099 20 13 15
-106.314349 -13.035157 -123.746598 15 14 13
-102.736819 -24.221908 -89.325029 108 76 63
-102.576387 -15.529220 -91.611785 114 79 65
-103.552341 -26.092294 -88.912117 39 14 11
-103.495967 -23.548640 -89.385539 35 14 12
-109.189558 -112.936878 -70.017010 34 20 21
-51.161790 49.369210 242.442155 59 34 34
-51.161790 49.369210 242.442155 59 34 34
-102.920556 -5.802167 -92.001343 18 19 17
-109.121895 -102.314627 -71.917808 47 30 30
-109.059846 -98.935038 -72.412992 63 38 35
-110.037839 -108.258462 -69.966924 140 104 84
-109.952676 -101.178849 -71.256995 123 93 80
-105.958748 -37.514421 -84.193450 43 32 54
-105.958748 -37.514421 -84.193450 43 32 54
-109.924233 -97.930831 -71.843588 130 99 82
-110.857320 -109.530210 -69.052744 30 17 15
-108.693898 -70.645547 -77.141577 59 34 34
-105.435967 -16.108753 -88.574654 46 32 39
-104.679298 -9.331874 -87.240404 14 13 13
-108.762157 -60.359740 -79.745173 45 28 28
-108.767748 -58.398867 -80.159587 41 27 27
-108.827853 -56.932306 -80.501717 46 29 29
-111.851215 -107.985485 -67.687392 157 115 95
-109.581959 -69.323498 -76.288790 142 104 86
-112.771297 -112.291217 -65.867257 28 15 16
-110.248518 -71.527046 -74.282074 53 33 27
-68.130106 10.458294 152.301455 30 17 15
-105.634201 -91.694653 -36.517227 30 17 15
-112.726462 -104.855287 -67.045969 27 14 13
-112.627006 -99.251443 -67.648530 25 13 16
-111.288059 -72.561002 -73.331493 153 116 96
-111.376607 -69.174027 -74.247873 158 116 95
-113.490713 -103.499281 -66.039044 112 84 68
-113.490713 -103.499281 -66.039044 112 84 68
-113.466537 -100.280821 -66.763085 108 83 69
-114.100671 -111.435974 -63.419408 29 16 15
-113.341963 -100.987256 -64.702630 80 60 50
-113.476133 -97.066420 -67.317653 110 84 68
-113.967991 -109.330964 -63.100874 31 17 16
-114.056706 -108.046889 -63.952571 30 14 15
-111.241221 -58.530605 -75.809586 151 112 92
-113.330770 -97.668135 -65.162063 86 70 59
-112.297022 -73.433340 -72.400284 61 36 34
-113.933468 -94.034272 -66.329682 45 25 21
-113.933468 -94.034272 -66.329682 45 25 21
-110.341978 -32.497418 -78.031695 11 7 7
-110.354316 -32.747510 -77.810097 11 7 7
-113.036656 -64.629215 -72.711909 123 91 70
-113.602459 -74.179953 -69.236898 52 33 27
-110.363638 -22.302192 -80.588490 11 7 6
-113.693643 -72.782242 -69.913203 58 37 33
-113.652098 -69.299912 -70.500964 51 30 25
-114.615405 -63.421690 -76.704568 52 31 25
-113.597381 -61.947113 -71.585107 54 33 27
-110.175192 -8.774152 -83.155084 15 15 15
-113.468552 -55.110693 -72.668624 52 31 25
-114.148200 -35.514507 -73.544806 52 42 60
-115.564513 -2.649768 -73.742551 21 17 16
-117.797077 -10.418499 -72.679633 74 41 32
-118.598926 -2.372203 -72.976106 21 16 17
-154.680932 -169.385517 -99.885279 128 91 71
-127.334487 -0.372290 -70.011705 48 14 15
-139.244938 -112.494659 -56.764942 30 23 28
-139.595604 -108.939958 -59.511238 29 16 17
-139.322937 -106.885481 -58.871961 31 15 22
-139.322937 -106.885481 -58.871961 31 15 22
-139.895642 -107.478857 -58.429039 72 53 38
-140.597332 -106.579912 -60.874939 138 100 84
-139.355934 -102.502239 -57.673222 51 34 21
-64.692563 19.033507 167.526054 31 20 21
-141.884983 -108.242702 -61.604303 31 19 18
-48.655713 49.420571 244.615102 136 100 85
-138.490009 -73.743761 -61.975420 31 22 33
-138.490009 -73.743761 -61.975420 31 22 33
-139.278150 -71.697313 -65.221769 30 18 22
-144.553363 -113.589036 -60.884291 35 27 31
-137.380207 -50.896275 -65.718943 35 27 30
-143.033707 -93.329507 -64.615446 156 121 98
-144.336867 -107.918572 -61.768419 48 26 23
-140.579689 -67.723083 -67.622298 130 94 78
-140.585482 -63.743341 -68.263561 115 87 72
-141.690958 -72.380406 -67.208678 29 19 17
-145.856059 -107.376945 -64.002419 143 109 89
-144.290185 -93.977189 -64.471453 53 31 30
-145.460963 -104.289651 -62.735122 100 74 61
-141.731548 -66.402483 -68.304044 34 22 22
-141.731548 -66.402483 -68.304044 34 22 22
-137.564766 -34.580857 -69.344485 42 29 39
-147.575748 -114.615679 -63.546520 29 22 28
-143.115878 -71.601278 -68.157345 141 109 85
-143.115878 -71.601278 -68.157345 141 109 85
-143.087864 -68.312949 -68.867147 151 114 90
-147.029269 -102.630222 -65.402800 58 37 32
-141.586697 -54.801965 -69.916195 59 42 40
-148.096895 -112.961411 -63.650745 110 84 65
-142.350411 -93.724871 -51.014876 58 37 32
-143.098474 -64.055282 -69.375741 144 107 87
-51.595861 45.799503 234.045172 57 37 31
-143.086827 -60.871667 -69.961452 144 106 84
-144.402826 -72.604609 -68.401152 43 26 22
-144.562006 -70.673805 -69.242597 47 26 24
-142.980170 -57.444924 -70.188504 141 104 85
-144.395113 -69.105512 -68.873179 51 29 25
-143.034363 -54.056394 -71.249181 138 101 86
-139.071488 -13.381384 -75.180370 30 19 16
-145.079017 -67.629087 -68.402189 131 95 79
-144.325328 -55.071217 -71.245849 70 46 42
-140.016234 -12.053306 -76.464540 96 71 59
-146.843398 -69.351846 -70.241261 59 39 31
-146.843398 -69.351846 -70.241261 59 39 31
-147.944283 -72.129560 -70.386797 122 92 70
-148.436368 -75.701249 -69.772923 23 19 22
-146.807170 -55.349380 -72.771335 69 47 41
-147.964334 -61.296678 -72.167653 131 100 79
-79.412156 9.799280 154.380250 29 19 17
-94.858015 -4.735698 106.779563 31 22 33
-84.990180 -14.358957 138.185298 54 32 29
-95.922685 -3.887898 105.353820 29 19 17
-96.397316 -3.476640 105.255890 141 109 85
-96.371418 -2.176378 105.013752 151 114 90
-96.706623 3.203244 104.474151 70 46 42
-97.771132 -2.494990 104.642308 59 39 31
-79.172909 20.713776 153.979456 141 109 85
-97.616762 3.151765 104.036462 69 47 41
-97.616762 3.151765 104.036462 69 47 41
-79.380685 20.578317 154.183578 43 26 22
-79.251128 21.477111 154.414618 51 29 25
663.715601 -487.086964 -469.397545 35 27 33
662.993193 -441.425896 -493.598747 152 119 109
-420.897865 281.596589 555.022144 160 124 110
659.296846 -451.336813 -488.103104 162 126 110
273.156953 -123.132682 -140.126836 39 23 23
154.664230 -166.825676 17.112024 65 40 35
645.699883 -437.903214 -493.164062 152 122 111
644.983482 -488.730478 -481.880283 42 31 38
102.136827 -56.939632 34.666434 139 103 85
105.313230 -89.589679 42.555496 36 27 32
149.250650 -169.295263 13.207027 244 180 157
96.725798 -5.862258 20.531587 133 93 74
96.725798 -5.862258 20.531587 133 93 74
96.623355 -9.777331 18.948226 113 79 72
97.057027 -16.546234 20.320952 91 68 66
-401.017427 297.526979 560.376787 37 32 41
94.661564 -9.813379 17.752905 80 48 36
91.897410 3.074411 14.811365 159 98 81
96.108645 -56.863588 29.818746 84 54 41
142.767739 -170.501316 8.182779 247 184 163
142.016661 -169.049644 6.705988 63 41 34
95.426440 -55.838895 28.263819 44 38 46
91.455978 -20.350632 18.370260 15 14 24
91.208845 -12.532756 14.612161 111 82 69
140.322590 -73.129803 -31.318653 34 19 20
90.903294 -14.665143 14.532480 43 24 9
92.306828 -42.311686 21.305402 21 17 13
89.242738 -10.878688 13.496394 137 102 85
88.191175 -11.045998 12.467829 138 101 84
85.233951 -117.632639 54.502636 66 44 40
87.724042 -12.855542 11.983042 22 13 7
-315.364099 183.739281 516.185331 107 92 94
92.852038 -79.641670 28.140101 153 120 107
89.881158 -44.609863 19.729263 146 111 93
90.772337 -76.952064 29.901209 38 32 44
-5.821545 -10.010374 130.283439 44 38 46
92.479974 -92.780000 33.014944 55 47 53
587.800980 -325.742602 -593.422174 150 117 104
89.080161 -42.895716 18.435328 27 19 14
543.011856 -464.120674 -485.774183 45 31 38
89.232230 -46.476713 19.000848 26 18 16
88.245881 -42.008370 17.882791 30 17 14
87.758642 -41.638130 17.400447 163 127 112
90.747422 -92.279774 31.076276 52 44 54
85.533792 -21.385558 12.985781 22 19 33
88.152516 -53.109121 19.950758 25 16 11
87.784708 -52.835757 19.353345 149 114 97
527.047539 -420.496559 -499.363804 121 80 62
86.945766 -55.829012 19.785585 60 48 42
529.270649 -420.729160 -505.722332 120 78 61
309.390259 -185.431623 -264.202070 148 111 91
309.390259 -185.431623 -264.202070 148 111 91
86.186182 -49.363548 17.319283 23 16 15
529.916573 -420.481730 -511.536169 157 126 114
526.633883 -439.751291 -503.673124 155 122 107
80.867893 -15.928857 10.263686 149 107 90
519.904995 -428.252649 -511.791468 114 70 55
83.759642 -57.406533 19.074130 45 39 50
538.824320 -448.531485 -533.238983 114 70 55
82.318592 -58.680648 18.969646 89 59 57
60.114759 -100.069284 67.390460 67 42 37
76.521200 11.303994 2.573042 15 11 7
516.950893 -458.417416 -517.185307 161 117 104
516.950893 -458.417416 -517.185307 161 117 104
83.403373 -93.843418 24.143438 52 45 56
-373.344111 298.256183 607.519770 158 121 109
511.479616 -448.808146 -530.172777 158 124 109
83.865744 -101.016188 23.633900 146 105 86
77.843350 -42.872238 12.331223 152 109 92
513.475847 -148.986995 -662.909269 102 81 80
73.108810 -2.710170 0.506429 36 31 46
6.834623 14.138617 101.382005 113 79 72
74.717391 -38.444611 9.306677 156 114 98
516.101027 -167.965484 -667.802715 50 29 22
516.101027 -167.965484 -667.802715 50 29 22
507.781696 -168.071055 -658.154011 94 72 58
74.134922 -6.761121 -2.199045 20 15 9
515.128803 -159.276211 -679.228544 88 68 59
515.128803 -159.276211 -679.228544 88 68 59
73.524201 -41.045257 8.266301 33 27 41
71.985251 -4.893401 -1.852867 82 47 37
72.666460 -14.886291 0.400912 112 83 69
76.607931 -102.336621 23.880956 111 78 62
71.452671 -4.777874 -2.401004 136 103 85
498.422480 -149.611807 -672.503805 14 10 9
71.487397 -15.065037 -0.553055 105 75 67
73.740494 -54.192114 8.150160 157 118 100
73.740494 -54.192114 8.150160 157 118 100
680.569410 -443.119812 -888.854790 38 22 22
70.230538 -11.882841 -2.707609 108 80 73
72.812945 -54.424185 7.156069 155 119 100
706.496859 -447.729111 -939.787579 37 19 16
69.145012 -12.275663 -3.095142 92 78 81
71.753049 -54.548639 6.342026 148 111 91
673.377037 -453.254366 -896.328640 29 19 16
68.867236 -23.394011 0.477009 37 32 44
111.899233 -78.315443 -56.076330 31 20 17
68.690616 -20.390745 -1.038218 91 79 86
68.690616 -20.390745 -1.038218 91 79 86
72.886217 -94.066483 16.579206 45 31 38
68.433827 -12.130464 -3.955017 116 84 68
68.349785 -22.697735 -0.270031 82 74 83
68.378973 -22.813497 -0.286825 82 74 84
68.501502 -13.699922 -3.638066 115 87 76
68.293846 -13.175838 -4.634736 23 13 9
63.785791 -120.614314 39.596930 252 195 173
67.842031 -7.406426 -6.150095 17 12 11
658.470678 -439.664555 -896.750450 108 93 93
658.470678 -439.664555 -896.750450 108 93 93
661.768866 -463.835526 -897.635746 107 92 94
661.768866 -463.835526 -897.635746 107 92 94
471.051168 -469.225216 -563.482237 156 118 102
217.447662 -24.384105 -269.009662 10 8 8
66.352326 -5.724477 -7.906114 142 107 93
661.546278 -420.152950 -927.755737 38 27 22
65.809834 -12.601756 -6.400387 89 69 60
65.594691 -15.890691 -5.234639 113 83 72
64.930409 -5.934373 -7.495280 79 48 35
64.930409 -5.934373 -7.495280 79 48 35
658.212233 -477.900839 -912.118244 35 24 18
65.363759 -7.232478 -8.267441 37 22 18
65.363759 -7.232478 -8.267441 37 22 18
255.621481 -163.169420 -299.024868 158 123 108
69.341624 -88.253272 11.155140 155 122 107
67.472243 -58.113623 3.521142 22 16 15
255.356765 -179.064357 -295.931816 153 121 106
6.818062 -12.990984 97.397649 149 114 97
67.826807 -95.205951 12.872565 93 83 93
-286.902404 181.160855 567.478657 24 19 15
-286.902404 181.160855 567.478657 24 19 15
647.345209 -440.935946 -932.583141 33 24 18
646.637011 -460.364914 -927.717304 28 20 17
251.646352 -178.087366 -299.895668 26 18 20
5.580980 -5.904675 95.289040 54 47 58
452.813959 -439.864159 -593.802786 162 129 115
446.067476 -445.036936 -593.860388 118 81 61
60.540384 -37.909600 -3.014543 133 90 72
64.628243 -96.601206 8.692946 58 52 63
442.959690 -440.269756 -598.561907 162 130 119
438.937140 -432.052040 -594.817400 44 37 53
440.231419 -460.515356 -591.032457 158 121 109
63.633406 -89.199305 6.385054 158 124 109
63.078195 -95.611799 8.417907 37 32 41
58.906931 -53.564829 -2.964639 167 122 106
60.429829 -97.850817 8.386631 103 69 60
-285.553885 266.938162 578.440523 174 130 113
54.571378 -25.393328 -10.437585 42 34 49
54.325390 -14.056472 -14.741750 94 72 58
54.185009 -21.433438 -12.094016 71 43 42
90.955907 -21.794997 -88.560867 144 111 97
53.953135 -18.282783 -14.328784 56 30 28
111.311901 -47.822630 -123.898816 150 116 98
111.311901 -47.822630 -123.898816 150 116 98
53.682607 -19.335631 -15.020289 147 106 91
89.110482 -40.790316 -81.704909 129 96 80
52.902013 -18.508050 -15.348244 56 32 26
89.127624 -38.184139 -84.155363 62 33 24
51.194859 7.849082 -20.868327 10 8 8
508.075237 -399.589038 -838.103580 140 111 102
98.576701 -41.530472 -104.032588 146 113 98
495.527411 -352.478123 -828.228664 50 40 54
58.336455 -22.670498 -26.607859 146 113 94
58.336455 -22.670498 -26.607859 146 113 94
53.566080 -61.526841 -4.409775 47 40 51
51.972544 -9.551034 -18.122017 14 10 9
51.317990 -7.665345 -18.958893 135 105 94
87.524337 -38.413280 -85.341918 74 42 35
53.292650 -59.048456 -7.837144 33 21 18
87.150073 -36.884591 -86.230236 146 113 98
51.208991 -11.527128 -18.957056 106 80 71
51.602423 -51.582134 -8.219393 38 23 23
500.536489 -424.410105 -839.892673 26 20 19
52.914828 -84.870791 -3.336038 150 120 108
49.680191 -24.587211 -16.423996 91 80 87
52.774525 -94.061220 -1.545627 156 118 102
52.774525 -94.061220 -1.545627 156 118 102
48.790559 -11.073292 -20.157167 52 34 27
27.180612 -8.058263 25.128022 72 42 40
50.078118 -50.479257 -12.415009 153 120 111
49.722815 -47.787079 -13.818000 116 99 102
483.394337 -371.860671 -859.015083 117 98 100
51.182330 -87.632829 -4.413955 108 68 56
50.988615 -85.648155 -5.624109 159 128 117
49.500233 -53.988153 -12.476222 108 93 93
50.604081 -90.967458 -3.994914 162 125 110
47.129187 -22.962712 -18.072850 129 96 80
50.077510 -97.516787 -2.073265 42 31 42
46.846983 -20.921867 -19.478467 62 33 24
471.114445 -456.438351 -826.305580 171 127 111
48.106125 -51.260829 -13.650517 47 26 17
52.136201 -22.662975 -31.676498 146 113 98
28.825918 -11.185490 16.472314 146 113 94
46.432915 -15.292495 -21.432750 106 79 64
75.296026 -170.408988 -37.320194 169 128 103
78.160536 -176.006842 -41.976893 75 47 42
47.466505 -62.546563 -9.597717 49 43 56
47.899288 -48.982835 -15.068434 38 27 22
45.771739 -8.743358 -22.963518 90 58 44
45.771739 -8.743358 -22.963518 90 58 44
45.589936 -11.425051 -22.415952 32 19 14
76.642424 -178.316796 -39.712483 255 205 183
45.716012 -21.143468 -20.535049 74 42 35
47.605985 -59.886664 -12.642784 35 24 18
47.443882 -58.105195 -13.102247 155 118 98
47.443882 -58.105195 -13.102247 155 118 98
-22.965601 4.782576 125.249255 50 25 15
45.403904 -19.943237 -21.182594 146 113 98
-435.425806 333.380079 952.894974 38 21 21
45.110151 -10.526209 -23.710319 113 87 78
45.110151 -10.526209 -23.710319 113 87 78
