ply
            format ascii 1.0
            element vertex 6707
            property float x
            property float y
            property float z
            property uchar blue
            property uchar green
            property uchar red
            end_header
548.513222 -615.140247 2840.513229 65 58 75
561.539555 -708.319807 2871.260262 122 79 67
490.873241 371.634579 2600.896072 113 76 67
561.377001 -613.206530 2861.746216 113 109 117
488.858843 468.682051 2584.439659 104 75 69
498.526907 347.086239 2610.798264 179 136 118
498.092079 346.447587 2603.876114 179 136 118
496.908045 376.700640 2601.516151 170 134 116
516.948462 92.813146 2679.176521 139 113 113
527.560091 97.856075 2695.602798 152 138 136
497.060204 551.389885 2567.909431 165 129 109
533.643723 122.166133 2690.146446 151 140 141
537.080002 134.904408 2688.228226 176 135 119
537.430191 101.818347 2680.963326 142 136 133
419.161654 158.927870 1825.459480 100 72 64
540.645742 250.142407 2653.938866 169 131 112
456.320953 612.517786 2123.411560 15 16 10
540.734386 338.054776 2635.701370 170 129 109
561.748266 97.082770 2703.285217 127 84 72
533.081484 517.202520 2598.805618 95 66 61
543.122101 394.627929 2625.994492 177 135 116
327.668834 -118.229151 1087.277031 75 45 53
545.343590 515.959072 2587.052345 100 66 61
638.823414 -697.481966 2915.711403 60 43 54
542.576408 622.141838 2580.051422 161 124 110
541.912031 633.030891 2574.202538 151 121 106
576.831150 186.704206 2689.786911 107 68 58
612.564611 -275.109577 2813.454819 144 99 86
576.873589 303.127360 2667.832947 109 75 69
630.078173 -374.541998 2853.199387 157 111 92
626.542902 -280.692673 2820.590591 147 102 89
574.344492 442.800045 2645.232964 171 131 115
658.639526 -643.592882 2935.254860 145 91 72
585.767508 299.174118 2671.596336 170 131 114
610.283804 75.244904 2737.074852 139 96 84
669.326544 -588.152981 2934.850121 147 96 74
615.261745 48.387384 2738.844872 64 36 47
615.261745 48.387384 2738.844872 64 36 47
639.407873 -209.054589 2828.551674 41 26 21
627.490616 -84.723556 2782.093620 145 118 123
591.178560 392.093897 2653.245163 102 69 59
637.856054 -189.536262 2812.805176 58 33 29
585.626984 473.388147 2634.140968 162 129 108
640.434599 -168.266916 2825.096893 73 44 34
722.283363 -584.033632 3282.669067 157 105 82
609.435797 227.005363 2714.809036 110 78 67
673.015928 -548.511028 2930.542374 148 96 75
606.160450 235.915995 2689.534760 187 139 121
683.815050 -679.209614 2959.348679 200 151 131
590.832710 479.025698 2631.503677 104 69 63
613.627768 201.715541 2709.503746 114 75 66
650.637627 -208.593655 2846.554565 98 67 43
651.817846 -269.941449 2836.837196 100 75 85
656.394053 -333.101439 2842.973900 186 145 128
656.646729 -284.807110 2839.817238 117 98 107
661.306715 -329.328227 2851.337814 111 74 60
658.708858 -211.958838 2848.942184 47 21 23
592.233181 566.703606 2614.091110 96 64 61
640.326118 22.299500 2776.907349 83 51 37
663.486767 -203.890467 2839.710999 48 30 22
665.293074 -263.484979 2838.405037 187 140 123
702.050591 -692.377043 2964.589882 64 44 58
663.826656 -188.728738 2836.894608 73 43 30
602.728271 569.055605 2625.098419 93 65 58
652.734423 38.531193 2803.915405 174 125 115
652.734423 38.531193 2803.915405 174 125 115
658.564568 -77.630734 2815.124130 51 23 20
674.317408 -311.997128 2855.176735 74 54 70
257.684875 56.455380 493.750048 37 25 16
657.407999 -50.209427 2803.416061 53 25 20
665.776443 -114.196956 2832.361794 57 34 25
638.381100 153.072774 2550.317192 28 22 22
643.663120 191.868877 2742.910004 184 142 127
668.708849 26.429275 2834.559059 81 52 37
638.505363 360.618067 2712.843895 56 38 32
690.935087 -321.334696 2871.801758 198 153 130
648.089981 461.581802 2757.838631 24 18 17
637.024117 447.650909 2682.054901 23 18 19
682.856321 404.520559 2936.019135 185 149 130
678.246260 -44.283018 2813.739586 205 157 133
637.273312 469.224453 2679.553223 24 18 17
707.145500 -399.870491 2896.038628 68 40 45
692.906046 -167.091763 2861.694145 84 40 36
699.818373 -202.115965 2885.578346 68 42 30
733.689785 -635.496426 2985.683250 102 57 44
699.555206 -309.450269 2862.195969 92 62 70
335.829234 142.677987 959.791374 175 135 112
650.665140 376.015162 2722.478294 181 137 121
254.630327 55.836159 502.797651 127 87 73
649.114990 402.265310 2716.776848 123 93 72
636.972618 508.416510 2668.485641 23 17 18
1004.480076 715.203094 4651.192474 84 49 43
701.159048 -252.739382 2861.784172 123 87 75
701.159048 -252.739382 2861.784172 123 87 75
638.412809 528.830862 2666.315460 22 17 16
696.974707 -142.403519 2854.538918 79 50 35
664.091921 219.925308 2730.653572 130 88 78
742.978859 -686.873245 2979.640770 49 34 47
705.408192 -110.869610 2885.510063 107 80 65
667.772293 252.151155 2733.600998 135 87 73
715.938568 -317.393780 2879.771614 131 92 79
721.833181 -330.442977 2898.319626 165 129 111
662.469625 410.119104 2710.904884 28 22 22
702.562380 45.916775 2836.804962 210 167 150
716.502476 -165.127146 2868.454742 86 43 39
662.782955 463.962889 2697.933006 144 114 107
719.799280 -202.595711 2878.985214 63 36 29
679.334211 256.516099 2739.457893 109 74 66
725.976181 -200.079012 2891.989517 56 35 27
724.350834 -181.409156 2878.042412 68 41 32
678.952456 376.495528 2732.934761 188 144 123
689.322138 243.936133 2746.493721 191 142 123
746.005964 -373.618889 2914.076233 135 93 81
679.025841 462.858677 2711.859894 191 145 127
415.651894 62.561309 1045.109177 68 42 30
748.393488 -364.054322 2912.788582 194 149 128
742.061424 -216.275191 2889.384270 45 33 44
630.422354 338.264537 2428.199768 28 22 22
701.334429 236.266780 2753.415680 108 68 58
743.928051 -261.047006 2881.114006 184 139 122
696.699905 397.687244 2745.888710 49 36 29
672.596979 434.252787 2613.909340 67 34 35
694.833088 491.828775 2713.382339 61 42 34
695.839977 518.724632 2714.269066 61 40 33
696.540642 535.604191 2714.010811 67 41 35
708.645678 380.409694 2746.639633 178 136 117
769.560575 -374.729443 2918.823624 144 95 90
714.850330 503.566456 2788.395882 74 47 36
732.985592 106.733239 2800.131416 131 92 81
723.880339 235.187173 2769.947052 117 70 63
722.787619 348.245692 2767.758179 68 46 34
691.074133 636.166477 2659.810448 59 42 33
691.074133 636.166477 2659.810448 59 42 33
722.642469 368.577242 2762.250519 71 46 38
581.923723 362.676978 2076.958466 34 16 20
710.483217 545.327187 2715.552521 187 147 120
723.831272 418.533897 2757.081604 61 44 32
552.609301 326.055527 1900.403214 36 16 23
724.572706 441.853189 2755.623436 71 48 36
723.490953 458.269930 2746.215820 74 51 39
702.141094 440.411329 2622.008133 71 48 36
702.621031 458.300495 2622.676659 74 51 39
723.845911 519.899797 2733.912659 78 53 40
828.872776 -669.516945 3023.546410 72 61 72
683.457947 684.189367 2512.792587 44 32 28
771.103954 95.155579 2816.864204 137 90 81
765.587521 229.296231 2806.532288 153 114 100
850.624466 -638.429165 3035.091400 57 48 62
769.532204 241.144323 2787.302589 95 64 51
774.378157 224.958682 2798.200607 101 65 56
774.704647 263.043809 2800.762177 164 119 101
774.572134 274.826407 2790.348625 176 134 115
774.572134 274.826407 2790.348625 176 134 115
779.522228 369.406557 2766.262245 105 67 62
779.013920 413.285685 2758.571053 106 68 64
869.234562 -445.436192 3001.736069 106 75 78
799.349070 283.291364 2802.630043 102 69 62
781.819010 462.696028 2744.695091 167 126 107
798.987579 372.310185 2785.774040 102 69 59
723.384666 679.893446 2460.383797 62 46 41
383.969879 70.606017 957.100582 76 70 85
807.435417 453.582478 2767.355728 157 123 97
732.470703 680.755424 2481.578827 183 140 119
809.545898 510.194397 2754.828644 163 125 104
809.556293 543.631697 2730.287552 90 59 53
808.827496 597.252274 2733.275223 160 125 104
806.750965 650.718737 2722.710037 152 118 98
842.953491 421.240950 2802.969360 96 66 58
851.584530 327.903152 2822.275734 162 124 102
844.022846 476.710987 2786.797905 115 76 64
971.561050 -693.592691 3113.911247 109 77 67
851.924515 419.103003 2779.725456 100 65 60
849.860477 502.635670 2782.744408 154 123 99
850.560951 588.582563 2761.540794 146 113 92
984.438896 -652.441931 3113.135338 66 57 66
975.702667 -587.785625 3076.431274 150 114 97
895.678329 288.418770 2856.250954 161 123 103
895.678329 288.418770 2856.250954 161 123 103
895.604038 376.901031 2836.556053 160 127 103
886.827755 521.325111 2818.091202 163 125 107
895.090866 432.136154 2815.011215 166 125 105
889.006901 611.821365 2783.551025 102 68 56
1028.140926 -573.472500 3125.552940 67 60 70
1028.140926 -573.472500 3125.552940 67 60 70
988.681984 463.562059 3076.960182 87 61 55
951.103210 297.664928 2882.437325 42 30 22
965.488338 290.749359 2886.379051 125 97 78
950.141811 439.932489 2842.079353 130 99 62
966.324520 379.115844 2870.860863 127 99 79
950.624657 532.747030 2831.410599 43 29 21
976.782894 283.850336 2887.733269 120 83 65
949.249649 557.482100 2819.676399 42 27 19
963.888550 417.868328 2846.207428 126 96 80
965.053654 465.921497 2850.259590 124 92 73
949.888325 627.783346 2807.537651 49 31 23
949.035454 665.611982 2797.950554 25 16 8
949.035454 665.611982 2797.950554 25 16 8
988.579178 355.659509 2896.799278 166 128 106
967.976856 527.181196 2845.523071 144 110 89
987.366867 391.524935 2874.379158 96 64 56
962.812996 591.401434 2807.637024 126 95 75
964.414501 661.557293 2806.674385 109 84 68
948.453140 689.743233 2749.114418 19 13 9
982.280445 526.361609 2842.008972 157 125 102
974.476814 643.287468 2818.755341 102 71 59
981.835461 559.666300 2818.277550 88 59 53
1021.053600 493.741703 2909.082794 159 120 101
959.226990 668.955278 2725.048447 127 99 99
1021.666718 495.948601 2887.511063 108 71 61
1027.387047 402.620506 2895.709229 162 123 103
934.785080 691.785765 2624.808693 126 87 71
927.263165 694.172955 2597.902489 91 53 47
923.890591 704.122639 2586.155510 53 36 33
923.890591 704.122639 2586.155510 53 36 33
1128.828907 -364.860559 3133.390617 71 41 54
1026.607037 519.211292 2879.870796 145 114 91
949.616337 608.355522 2614.588547 84 53 46
1064.813805 364.295387 2947.745705 164 126 107
936.462307 696.832991 2559.613991 145 110 91
960.714817 707.976770 2604.238892 162 132 107
438.570642 -6.183251 914.751148 98 67 43
520.302248 -35.252735 1025.428009 54 24 26
569.193745 -60.104555 1184.089375 155 122 103
392.278647 13.678615 624.927092 179 138 117
414.228582 118.546999 808.654976 167 123 109
520.484066 -110.392106 1183.531380 45 33 44
520.484066 -110.392106 1183.531380 45 33 44
382.596803 33.923388 589.299345 74 51 39
402.557898 19.970094 668.837690 179 138 117
427.090740 67.208159 791.386557 178 136 117
453.171968 2.086961 911.307621 68 41 32
419.515419 133.347869 797.063923 123 93 72
423.546886 77.571130 764.337778 71 48 36
422.416067 131.770289 799.452353 27 21 21
427.881718 98.314798 815.657997 112 69 57
427.881718 98.314798 815.657997 112 69 57
426.046515 82.668918 774.595833 71 48 36
424.755096 85.920674 768.718386 74 51 39
420.848560 160.536778 786.825657 33 22 19
423.972607 145.652568 790.298510 191 145 127
423.219490 162.988722 784.073734 184 139 121
363.324332 77.867454 610.402012 115 75 63
425.804186 159.615016 782.509947 67 41 35
432.875395 148.294294 784.318733 184 141 116
346.003413 23.959199 488.255072 50 31 25
345.647931 40.472370 479.317856 50 31 25
345.709729 39.994410 476.151419 218 172 155
1700.007439 92.262429 -1249.415684 129 90 81
1707.313156 177.985454 -1290.287399 113 79 66
1700.771713 170.599639 -1286.137486 87 59 53
1690.301704 152.459514 -1274.333191 96 69 60
-870.666027 -107.671630 1884.429741 166 123 106
-875.643921 -195.635664 1898.461151 134 92 77
-850.644398 375.575209 1828.931999 172 131 119
-881.175232 -338.206863 1923.672867 149 104 89
-881.175232 -338.206863 1923.672867 149 104 89
-847.744942 112.584531 1861.314964 54 39 44
-848.733711 -65.225607 1890.634537 120 78 67
-844.203377 -67.936218 1895.831680 180 134 117
185.444105 140.899479 828.902340 64 32 29
-855.391788 -440.996504 1959.544945 97 65 51
-860.110664 -533.832836 1973.895073 128 86 71
-860.110664 -533.832836 1973.895073 128 86 71
-860.823250 -570.487022 1979.542732 91 58 57
-832.931328 -67.226136 1903.152275 137 102 86
1189.071941 101.278818 -610.539246 31 17 15
-824.433422 -69.410354 1898.098946 95 62 53
-854.191780 -538.962173 1976.953697 189 141 125
1551.453495 147.918236 -1190.488625 109 68 52
-843.349171 -147.219849 1936.527252 46 30 20
-814.124107 85.129368 1881.247711 125 82 70
-843.266582 -418.709850 1961.778259 108 81 75
-848.825932 -338.196468 1965.345955 122 72 52
-809.824562 62.356848 1888.408661 105 65 53
-811.776257 214.544654 1881.086159 187 144 124
-813.782310 -60.211062 1909.699821 119 76 68
-813.782310 -60.211062 1909.699821 119 76 68
1146.342373 107.586539 -576.179743 49 33 27
1146.436787 107.846773 -576.637936 49 33 27
-814.426422 154.767942 1899.610138 59 43 37
-802.161694 62.218279 1893.181229 166 128 113
-801.880455 67.364442 1892.885208 103 67 53
-829.583645 -442.637110 1974.774933 169 131 107
-832.644367 -305.328155 1968.882179 142 93 71
-798.926306 222.520828 1887.488937 128 85 80
-827.309608 -300.634527 1970.439148 202 155 139
-822.505188 -434.394407 1976.551437 151 131 133
1358.603382 426.299429 -1033.522511 56 29 27
-821.260643 -453.017187 1980.866051 102 75 70
-821.260643 -453.017187 1980.866051 102 75 70
-786.692238 381.115866 1867.021179 68 26 8
895.671558 140.886629 -270.674562 83 56 43
-798.818064 -95.587820 1926.110840 65 39 40
-798.818064 -95.587820 1926.110840 65 39 40
1681.065178 417.616749 -1474.574757 50 30 25
1374.632549 -106.144166 -973.944092 81 51 40
-819.572067 -489.951754 1988.917923 100 68 53
-787.855673 62.442231 1901.414680 174 132 118
-222.239876 55.246788 1272.007370 141 98 81
-790.829849 -40.335512 1921.140289 106 73 67
-814.740753 -494.519424 1992.373657 170 132 116
1704.761314 465.356922 -1535.171509 51 31 24
-810.659885 -467.074633 1990.286636 78 66 75
-785.765314 -63.810557 1928.279495 106 79 75
-776.569223 64.641309 1908.270645 173 130 116
1631.251717 391.808724 -1437.832928 219 169 152
1631.251717 391.808724 -1437.832928 219 169 152
1669.350815 448.475361 -1506.527901 217 169 151
1669.350815 448.475361 -1506.527901 217 169 151
-633.409452 203.139949 1710.168266 187 144 124
-771.720934 343.342948 1887.942886 67 38 32
-806.170559 -171.452546 1978.278351 210 160 139
-795.579529 -413.915396 1990.060043 109 75 65
-799.851179 -562.679720 2013.600731 67 44 46
-795.200157 -481.332397 2002.589989 122 83 69
-775.346422 -89.286238 1942.049026 171 127 114
-794.459772 -472.434044 2001.948357 64 40 55
-796.482515 -362.482810 1999.827003 205 157 139
-757.706547 352.691412 1884.934807 66 38 28
-772.201490 138.304746 1927.030945 61 42 35
-414.005184 74.672204 1520.009041 204 159 140
-751.790667 280.138731 1890.917015 76 43 27
-788.848686 -331.469893 2001.016808 127 77 51
-377.363420 51.380593 1481.117058 57 28 24
-757.637453 -62.650251 1945.859528 124 87 74
-750.123453 59.024966 1924.932671 122 77 62
-793.682384 -596.911192 2044.460678 222 171 150
-775.760841 -434.935093 2006.893539 182 136 119
-748.481560 65.392888 1925.320244 120 79 63
-754.745913 -58.074874 1946.280098 173 131 116
-772.631836 -412.184381 2004.549408 116 80 69
-745.719290 60.914695 1926.143265 161 126 114
1291.450882 121.853614 -832.313061 49 33 27
-767.675257 -412.372589 2007.620811 183 140 128
-784.853125 -597.405434 2051.180267 157 105 79
-746.151257 -57.212281 1951.032639 167 126 111
-711.835384 506.169033 1854.549217 118 102 119
-711.835384 506.169033 1854.549217 118 102 119
-740.200567 -60.579741 1952.536201 120 80 69
-772.541761 -611.682510 2049.382210 156 103 78
-372.866893 51.676977 1505.702209 177 139 127
-738.420963 -56.250322 1954.256058 173 134 120
-752.857590 -135.363126 1984.687996 46 27 20
-730.268478 128.056085 1930.303955 61 52 65
-756.362391 -461.059475 2022.741508 143 124 122
-751.680517 -444.021177 2021.935463 71 52 59
375.342584 128.555501 351.661491 30 18 11
-746.836710 -443.248463 2025.194168 163 129 120
1291.592026 396.904063 -1027.197838 42 28 24
-743.093157 -404.226255 2022.500038 168 128 119
-700.804329 387.369227 1891.795540 168 126 109
-700.804329 387.369227 1891.795540 168 126 109
-818.298149 -217.528105 2099.059868 177 139 127
-709.842205 78.348082 1944.924736 186 142 124
-715.122747 172.582912 1944.819450 158 120 106
-734.937096 -412.768221 2028.356361 172 137 126
-738.212681 -525.397110 2045.696259 133 87 79
-738.212681 -525.397110 2045.696259 133 87 79
-695.939827 339.088464 1904.158592 86 60 54
-695.819235 250.423026 1920.425034 96 67 59
-732.766390 -521.094370 2048.364067 151 105 90
-702.223253 96.442062 1946.248055 141 97 85
-695.415688 206.093526 1929.346466 96 65 57
-697.734308 155.704868 1938.477707 185 141 123
-697.283077 167.439914 1936.785698 187 140 121
-697.374535 122.912288 1945.319557 187 141 124
-690.708637 162.381613 1940.079117 97 66 58
-681.397676 340.721607 1913.245964 87 60 55
-716.195965 -416.526222 2038.896179 115 73 58
-715.111637 -423.661327 2042.301941 196 148 131
-714.731741 -527.498722 2060.397720 149 106 92
-708.388853 -414.240599 2043.844604 123 78 64
-707.671499 -408.381844 2043.851471 190 143 128
-677.106571 126.928473 1954.877472 178 134 120
-670.408821 44.376680 1974.419975 104 69 58
-671.517992 43.656555 1975.965500 104 69 58
-671.810102 7.354926 1983.498001 93 62 50
-654.885769 47.917166 1986.253738 173 130 114
-657.605171 -24.329437 1998.103142 97 65 52
-654.271555 -45.901906 2003.734779 118 84 65
-636.431694 123.787379 1981.650543 95 67 60
-624.625969 212.725997 1970.915031 92 66 61
-621.018362 264.381099 1960.373497 178 135 117
-633.279991 -6.337978 2008.519173 51 48 60
-618.706989 296.362257 1955.031586 142 108 98
-622.963476 -44.274542 2023.465157 84 61 62
-622.746086 -130.859900 2041.218567 88 63 66
-621.386528 -235.140872 2059.368896 82 58 63
-621.386528 -235.140872 2059.368896 82 58 63
-622.548437 -295.129347 2072.284889 84 60 65
-622.548437 -295.129347 2072.284889 84 60 65
-595.543671 31.995425 2023.934746 175 132 117
-587.734127 225.341272 1990.392303 179 134 118
-587.893724 169.301069 2004.065895 180 138 123
-593.193626 -90.868300 2047.201157 128 95 84
-579.262018 261.612415 1988.253975 91 65 56
-581.857586 141.596174 2011.272621 106 74 65
-548.200655 222.831225 2017.686272 94 66 61
-548.914909 95.335811 2037.119102 105 73 64
-541.803217 308.159423 2003.002739 178 137 120
-533.669186 514.466143 1969.844055 95 69 63
-534.691954 399.257302 1989.722443 86 60 54
-547.704172 -114.552307 2081.090736 184 140 126
-532.631254 185.929453 2029.944611 178 137 121
-527.418089 216.048765 2023.773766 148 112 101
-549.157000 -428.019905 2141.743088 177 133 120
-534.995270 1.155878 2067.470551 156 141 138
-549.078035 -492.486572 2154.101944 185 141 128
-502.554464 360.194874 2016.827965 85 62 58
-503.845406 183.445048 2052.883339 100 71 65
-491.431570 417.106056 2011.464691 91 61 52
-498.806000 178.604615 2057.120514 175 137 121
-489.402246 360.346293 2022.114563 87 61 56
-479.299498 192.406988 2065.303421 175 132 115
-472.230864 407.979679 2028.566933 86 59 52
-475.840473 141.665018 2075.208282 98 70 64
-470.524263 320.233822 2043.044662 92 64 58
-486.983442 -299.951291 2152.844810 135 91 79
-472.972822 230.562019 2061.149788 89 64 60
-472.155619 79.855007 2091.670418 112 76 66
-468.696260 116.207862 2084.466743 184 141 121
-474.198818 -279.748869 2153.853989 131 86 71
-468.037319 -63.575596 2120.101547 179 136 121
-452.185488 519.001627 2017.196274 161 124 110
-463.616896 -24.409837 2115.124893 126 87 75
-460.159397 -27.534598 2117.102242 183 140 129
-460.159397 -27.534598 2117.102242 183 140 129
-467.187166 -381.221080 2176.432228 154 108 91
-457.745171 -30.693772 2119.706917 185 142 127
-459.086609 -76.124752 2129.722786 149 128 131
-465.186453 -542.398548 2206.409264 178 137 124
-443.119335 460.910225 2033.412361 150 116 108
-465.411615 -517.158318 2204.856873 189 144 130
-465.411615 -517.158318 2204.856873 189 144 130
-465.419531 -517.814684 2205.506706 189 144 130
-453.460073 -493.376303 2207.249832 191 146 129
-449.379635 -394.813371 2188.508606 106 71 60
35.801077 59.173679 1069.233990 180 134 117
-998.092937 -335.428643 3484.572601 202 158 141
-446.502781 -350.994849 2189.891052 73 53 65
-435.368586 411.912346 2069.415474 61 45 40
-31.023121 -5.723621 1216.242886 177 139 127
-35.512811 -16.600624 1224.282074 177 139 127
-446.286774 -260.064483 2184.062767 202 157 141
-441.917515 -406.942749 2193.670654 179 137 122
-445.146942 -345.363498 2196.380997 46 35 49
-441.814518 -380.282998 2194.603729 179 134 121
-441.814518 -380.282998 2194.603729 179 134 121
-445.342875 -263.052726 2194.615936 166 112 88
-418.591928 455.422544 2048.078346 148 115 104
498.744535 215.105152 48.806062 33 21 19
34.233519 29.836768 1086.113739 46 30 20
-426.528931 362.927079 2083.164215 29 20 21
-425.506163 -25.964913 2139.350510 129 87 80
-1159.002972 1035.318947 3646.316910 13 13 11
-417.361498 112.840116 2112.779617 181 136 119
379.701996 90.749437 329.501581 188 147 123
-410.522413 456.606388 2054.555893 148 115 103
-417.236757 136.520875 2111.917877 115 78 67
-417.236757 136.520875 2111.917877 115 78 67
-417.088366 118.801403 2116.918182 131 90 79
-602.742434 -211.445594 2631.494141 56 29 27
-427.801466 -157.381880 2182.825089 61 32 28
-424.368477 -388.865972 2206.035995 92 66 76
461.342812 99.979526 164.677906 65 40 37
-767.113876 210.767817 2915.799141 77 48 42
-429.153347 -260.887337 2206.746483 162 109 89
-411.350155 131.101000 2115.965080 118 79 66
-421.075583 -490.144825 2224.304199 144 103 88
-481.195259 -203.590155 2306.642532 208 167 149
-481.195259 -203.590155 2306.642532 208 167 149
-481.195259 -203.590155 2306.642532 208 167 149
483.895111 189.574909 88.039523 212 168 150
-416.959667 -394.484282 2211.016655 159 131 131
-410.491180 417.652082 2089.280891 20 16 10
-408.899689 366.566944 2093.217850 41 30 31
-405.841398 76.468253 2128.509331 173 131 117
-414.027262 -370.176744 2209.156227 147 105 93
-415.408278 -446.037292 2221.937752 102 68 60
-404.646158 98.039538 2125.905418 172 135 120
-406.856728 -17.812312 2147.226524 123 82 73
-412.156963 242.556834 2125.627327 69 49 44
-412.428427 -395.202351 2213.743782 119 74 63
-412.429571 -441.447544 2222.883606 147 113 104
-410.564518 -485.069847 2228.640556 185 143 127
-405.044508 -11.855287 2152.730560 123 83 71
-403.165197 391.859293 2096.290588 37 23 18
-408.565664 -416.821766 2217.705917 147 122 124
-408.921957 -425.126696 2221.626091 75 57 68
-407.882643 -437.599468 2224.506760 107 69 59
-418.167973 -101.170063 2201.255989 50 30 25
-395.745969 87.332767 2134.340477 173 136 122
-394.844556 111.295033 2130.959129 121 86 74
-402.661896 -421.813107 2223.963737 153 123 121
-385.002542 522.108507 2058.511353 68 50 46
-400.839996 -412.572956 2224.363708 131 92 82
-395.280838 408.323956 2101.034546 190 145 127
-395.280838 408.323956 2101.034546 190 145 127
-394.242740 386.941624 2102.946854 190 146 129
-394.242740 386.941624 2102.946854 190 146 129
-396.828532 -415.015125 2227.279854 191 148 135
-389.109850 3.529904 2154.905891 101 68 62
-394.361281 -423.602390 2228.793144 157 124 118
-393.320942 -370.104384 2220.998955 117 83 71
-394.208360 -442.928648 2233.443260 157 121 110
-391.534472 -437.781906 2232.422638 118 77 67
-392.053127 -81.770182 2187.025070 219 169 152
-382.694459 123.867226 2136.001015 181 137 120
-403.562832 -638.963985 2292.749786 170 113 91
-392.536545 -447.567844 2239.925766 112 75 70
-394.874763 -119.839239 2200.263405 217 169 151
-385.653400 345.090485 2116.586876 53 20 14
-380.677128 73.663330 2146.673012 166 126 113
467.781830 182.003736 123.090935 210 164 144
-379.478788 87.552005 2143.210220 95 59 53
-384.683371 -422.816801 2233.220673 128 84 74
-378.146553 340.999961 2112.779427 207 142 123
-381.385565 419.987440 2112.281036 39 35 28
-387.365818 -240.054297 2221.095848 162 117 104
464.410019 179.158461 131.875896 152 107 98
-374.405122 109.010530 2142.483521 172 130 115
-374.405122 109.010530 2142.483521 172 130 115
-382.222104 -437.534046 2239.247894 206 161 144
-375.891161 -10.505088 2166.414642 134 92 79
-375.891161 -10.505088 2166.414642 134 92 79
-388.089967 -332.321763 2243.264389 29 16 16
-371.619010 136.513829 2140.182304 89 63 56
-379.278946 -460.322809 2247.107887 199 155 137
-370.955920 333.330941 2126.509476 40 20 15
-373.834014 -445.123291 2244.506645 122 83 73
458.989286 143.124330 140.470600 205 162 146
451.201725 47.570446 153.813159 71 45 39
481.114578 86.703712 77.678210 54 38 31
103.029466 205.513501 990.365314 193 147 122
-361.430049 109.495676 2152.488327 162 123 109
-361.430049 109.495676 2152.488327 162 123 109
-364.092994 311.078215 2134.688568 189 146 128
-364.092994 311.078215 2134.688568 189 146 128
-362.563634 263.269162 2138.917351 174 133 118
-372.315502 -482.175350 2270.562553 194 147 132
120.679557 112.241280 1000.883865 204 159 140
-367.661858 -80.735213 2205.911255 46 23 20
-355.649495 102.613366 2155.005836 100 64 53
-357.244873 -10.148911 2176.331711 131 87 78
-366.643476 -253.147316 2238.102150 169 115 93
483.763170 151.955009 63.284039 185 140 122
-273.104429 -117.962253 1949.873924 207 164 148
-363.960123 -250.994158 2241.172218 221 174 155
-352.699876 -13.482036 2180.107689 169 133 119
-352.699876 -13.482036 2180.107689 169 133 119
-357.174444 333.727312 2147.809982 84 55 41
-349.126434 88.661700 2164.931107 138 103 93
-348.376036 420.183563 2118.260002 20 17 11
-355.178905 379.632759 2142.333221 35 24 20
-349.426365 248.814154 2151.719666 60 46 43
-349.437451 -401.210308 2251.684761 85 58 64
-358.086419 -2.908551 2218.630028 170 128 116
-345.608401 -389.175844 2251.770592 84 59 74
77.443755 36.141610 1085.503197 46 27 20
-343.455696 -376.524401 2249.785423 93 70 77
-338.677692 313.717699 2150.933075 191 147 130
-337.908220 -477.574396 2273.118210 186 144 128
-339.723682 -326.370907 2269.121552 23 18 14
-399.642253 -197.649336 2383.837128 202 158 141
436.691618 179.677677 215.884471 38 31 45
-312.851667 -11.355282 2200.772285 172 132 121
-308.323383 -6.047101 2205.464363 105 74 71
-308.323383 -6.047101 2205.464363 105 74 71
-308.323383 -6.047101 2205.464363 105 74 71
-312.290072 -483.624506 2290.663719 152 104 97
-311.465168 -496.420670 2291.971207 149 105 92
-306.915283 -11.789056 2204.133224 111 76 68
-309.069371 -471.569157 2287.486458 139 95 87
-309.012246 -479.089832 2292.585754 198 150 134
-293.229032 425.268221 2125.041580 73 52 50
-299.339986 -44.293487 2217.351723 164 127 115
-294.305301 293.298674 2152.395248 72 50 51
-260.924888 269.408560 2068.331718 158 118 109
-295.879316 166.430366 2177.827072 155 116 104
-293.573475 249.111962 2161.418343 74 50 46
-290.315819 476.857853 2118.043137 144 110 98
-294.690323 -372.583532 2276.754379 153 106 92
-270.950794 66.210300 2170.525551 26 26 40
-285.354733 -326.274347 2274.938965 200 155 137
-266.469049 337.482548 2136.687279 55 40 38
-268.065357 316.309142 2146.304321 55 40 38
-264.669943 111.166012 2175.595665 44 32 31
-239.449096 36.066648 2134.934425 28 27 49
-251.674294 111.677980 2163.533020 63 81 91
-238.103271 -64.753085 2172.443581 40 38 61
-239.625573 93.428445 2155.191231 14 16 20
-237.615824 147.628057 2156.484413 87 78 105
-247.137952 -289.561367 2290.122032 135 143 143
-226.730037 -88.444036 2205.117226 142 110 110
-246.804619 -353.393745 2304.332161 141 145 144
-227.968621 -85.179424 2219.489098 46 39 53
-240.676451 -317.930865 2294.489670 107 114 117
-234.484887 -316.345048 2295.061493 97 108 113
-235.514426 -251.995039 2289.365196 40 33 34
-220.062494 384.826684 2148.043060 45 33 33
-220.062494 384.826684 2148.043060 45 33 33
-220.062494 384.826684 2148.043060 45 33 33
-219.919586 -51.777756 2240.947723 153 123 111
-182.823396 -61.640263 2132.204437 45 36 43
-181.392300 -50.000626 2136.780548 62 51 48
-219.766474 -436.506653 2335.588074 114 125 130
-148.215330 499.840164 1937.733459 99 85 76
-218.702722 -282.419324 2311.013222 68 48 49
-205.571628 -343.285847 2291.254616 57 51 64
-167.359304 -41.837698 2122.663689 153 123 111
-211.593843 -269.756341 2309.783173 120 128 135
-208.412886 -256.769395 2302.958298 135 118 129
-159.088194 -56.425786 2130.952835 59 50 47
-193.801200 -389.819717 2336.752319 116 89 96
-189.818871 -498.896265 2355.451202 51 28 43
-189.818871 -498.896265 2355.451202 51 28 43
-185.370028 -496.331072 2357.771492 46 30 46
-181.517410 -280.242300 2315.808868 63 70 80
-177.866983 -415.223646 2335.647964 67 66 77
-177.256334 -268.646002 2316.828918 153 167 170
-179.928720 -363.122845 2345.205879 55 52 58
-177.822995 -454.786158 2358.511162 124 91 104
-179.647779 -370.660448 2351.332474 158 123 110
-173.930049 -411.249685 2341.317368 200 156 137
-117.629969 67.464584 2052.038383 87 106 113
-177.787924 -387.179375 2353.176308 79 44 36
-117.055571 -81.088382 2093.272209 41 42 64
-171.238160 -284.340239 2323.197174 65 72 80
-171.805608 -443.701887 2357.147408 86 68 76
-173.259759 -367.838454 2349.705887 76 64 69
-169.387805 -482.176304 2360.383034 192 151 135
-168.015051 -352.875233 2331.909561 69 59 63
-172.477639 -383.883905 2356.704903 154 115 103
-108.851755 102.031493 2045.479202 80 96 105
-163.758755 -428.376675 2353.078461 231 181 167
-166.846049 -369.687319 2353.358841 120 131 136
-163.973045 -401.996469 2349.215126 41 43 48
-156.879234 -457.928371 2360.133934 159 114 106
-97.099811 70.594299 2041.096306 21 28 32
-156.620288 -421.916771 2357.923889 144 103 93
-158.687043 -368.749952 2355.503845 180 148 137
-153.827465 -267.200494 2322.602081 126 140 148
-149.266028 -343.040562 2323.404694 64 59 71
-93.349367 80.387670 2041.444588 27 33 39
-151.952827 -260.852242 2327.789116 66 57 76
-151.952827 -260.852242 2327.789116 66 57 76
-92.984253 91.841346 2043.767929 91 108 117
-150.931120 -268.869948 2331.775475 78 84 92
-152.179182 -400.570059 2370.207977 89 63 59
-150.195897 -466.086435 2379.629326 54 36 31
-89.998651 103.074431 2040.710449 98 117 123
-88.298607 70.482105 2043.828773 27 36 45
-148.585153 -387.225747 2370.392418 152 120 116
-148.585153 -387.225747 2370.392418 152 120 116
-148.602438 -426.700163 2378.657532 99 59 48
-144.917250 -379.671526 2364.307976 74 74 89
-145.547044 -438.184404 2379.334259 152 117 104
-145.547044 -438.184404 2379.334259 152 117 104
-146.597779 -261.428094 2346.722984 69 66 81
-84.929407 103.571522 2041.636276 100 115 121
-143.874764 -399.305558 2376.206779 96 57 48
-142.277539 -278.740287 2348.420906 41 45 54
-141.293442 -437.036180 2384.008217 101 62 51
-78.517425 -85.356009 2076.766968 39 32 46
-77.668446 81.267124 2049.196053 27 32 43
-135.773242 -282.928705 2355.638504 125 134 136
-75.910419 64.406675 2053.268242 28 34 42
-75.910419 64.406675 2053.268242 28 34 42
-76.172459 78.492337 2051.742554 80 90 95
-134.072328 -282.702971 2361.229706 134 140 143
-132.413101 -369.803548 2376.782608 109 73 63
-72.867757 68.490517 2055.488777 67 87 95
-128.877580 -455.569363 2390.157127 121 96 92
-127.099621 -465.471268 2390.340424 47 34 33
-129.383886 -251.712632 2358.741951 67 60 69
-126.545823 -452.111292 2393.883705 39 28 28
-126.766813 -440.795183 2396.410179 136 101 91
-118.635905 -402.082634 2385.631561 116 129 130
-116.071618 -457.090425 2390.899849 92 103 108
-114.863396 -377.433634 2376.684952 98 101 110
-120.509195 -192.328620 2358.862877 128 94 90
-123.409438 -215.586996 2380.193901 175 135 123
-111.970282 -467.871332 2392.452621 121 87 112
-116.928399 -271.310401 2370.130348 72 69 79
-123.334897 -210.648322 2383.998108 161 127 115
-329.257321 -193.672049 3310.358810 217 168 148
-115.360928 -89.747041 2342.699051 200 160 143
-113.283384 -383.362341 2383.465767 132 134 139
-307.313275 -198.180056 3240.612411 36 35 51
-109.458220 -400.718403 2393.523216 96 96 108
-107.301462 -370.249820 2381.478882 81 66 63
-105.502987 -462.633228 2394.994926 49 34 45
-106.219268 -421.250153 2395.878410 124 127 135
-105.955231 -378.591228 2388.687897 80 80 95
-101.792300 -462.521791 2398.722458 113 114 120
-103.481829 -372.670555 2388.383675 186 149 135
-100.937557 -388.521314 2394.827652 159 148 146
-99.801826 -400.271797 2398.836899 137 144 150
-96.170878 -377.732849 2394.338417 191 144 130
-101.626158 -198.207724 2381.604576 142 106 94
-101.805103 -240.569139 2394.751930 198 155 139
-98.764861 -231.923676 2386.738586 122 82 69
-94.589752 -299.273777 2386.582947 50 39 48
-99.736965 -249.180651 2398.086929 119 75 59
-98.170692 -260.395932 2393.348694 104 64 53
-91.283697 -387.025666 2397.886658 141 152 158
-86.100119 -485.787439 2411.804771 144 110 124
-86.100119 -485.787439 2411.804771 144 110 124
-90.875983 -229.562092 2402.879143 122 76 61
-81.081134 -446.192932 2412.051773 101 75 73
-80.802757 -409.668255 2403.918266 131 139 146
-80.138272 -464.482307 2417.652512 53 46 62
-80.087745 -439.008951 2415.538216 169 142 137
-122.103751 230.941796 2439.500046 142 198 219
-79.522467 -367.726326 2408.144951 74 71 86
-79.522467 -367.726326 2408.144951 74 71 86
-75.604290 -433.892155 2411.004829 156 162 162
-85.272199 -232.702112 2406.733704 202 160 143
-75.820839 -299.250340 2397.091103 87 67 70
-69.085008 -341.855836 2402.290916 62 53 60
-69.085008 -341.855836 2402.290916 62 53 60
-68.382007 -383.232379 2412.845993 42 40 49
-68.382007 -383.232379 2412.845993 42 40 49
-73.971879 -207.641482 2400.967216 200 160 140
-65.272552 -428.674173 2415.571785 154 156 156
-62.432635 -464.713955 2413.483047 140 162 161
-73.960525 -255.280256 2415.794182 190 150 132
-73.960525 -255.280256 2415.794182 190 150 132
-62.112260 -441.326618 2415.483856 67 56 61
-71.731263 -269.070983 2420.172882 81 48 37
-64.864534 -388.155842 2417.909622 120 132 137
-64.511418 -360.178161 2410.020638 64 63 63
-64.511418 -360.178161 2410.020638 64 63 63
-157.654250 -69.386417 2829.204941 133 97 86
-59.383488 -458.539152 2422.386169 104 121 128
-47.717032 -115.256584 2304.307175 226 174 155
-62.981629 -664.981461 2498.670959 149 98 79
-61.702776 -635.568762 2489.364624 165 107 89
-55.048287 -506.560135 2431.855774 94 65 89
-54.168248 -494.465017 2428.324509 112 71 66
-60.308999 -292.928410 2409.860039 99 87 107
-55.788326 -428.572702 2431.239319 153 154 157
-61.638361 -219.892693 2408.198547 194 152 137
-55.620104 -388.611293 2425.393677 108 118 127
-55.961764 -310.897899 2414.065933 91 101 104
-51.194668 -456.327581 2432.185173 36 35 41
-60.421777 -161.886477 2405.107689 156 110 99
-51.786143 -396.418738 2426.584053 44 42 55
-50.487649 -406.784868 2423.247528 105 114 123
-54.818606 -181.678069 2403.844643 168 123 114
-42.659795 -494.813061 2427.653885 136 94 84
-45.168400 -349.517155 2405.612373 167 133 117
-48.048991 -309.309864 2409.052086 65 48 47
-42.933407 -483.913851 2432.441711 46 31 30
-42.378372 -415.110397 2436.363411 66 54 61
-39.501601 -478.243446 2439.468384 92 69 81
-38.780904 -341.015887 2405.375099 85 74 85
-38.482493 -472.494936 2441.773415 30 23 28
-39.384750 -354.991531 2419.938469 172 133 119
-42.120773 -297.681618 2415.918922 115 98 97
-39.197436 -432.554150 2443.810272 111 120 126
-32.052884 -494.610691 2432.559204 147 101 91
-31.894383 -511.356878 2438.643837 190 155 142
-35.166600 -378.998852 2433.683205 102 113 117
-32.849979 -393.375492 2430.608177 35 34 43
371.891356 -21.664384 914.686871 186 138 124
-33.427614 -373.249626 2430.052948 103 114 121
-33.427614 -373.249626 2430.052948 103 114 121
-34.435192 -308.735943 2420.745087 69 49 47
-25.321010 -502.903461 2438.229942 105 73 99
-31.211466 -387.909412 2438.063622 107 117 124
-31.569245 -379.023647 2437.614632 48 45 55
-28.358066 -404.687738 2435.824966 134 147 147
-34.024712 -210.762239 2415.064049 214 167 150
-22.748730 -492.949295 2439.578247 131 83 77
-35.247257 -259.449911 2439.850807 97 58 45
-21.441764 -497.369957 2439.324188 176 137 132
-31.938398 -206.521749 2421.323967 158 111 100
-33.764830 -252.642775 2444.020271 194 150 133
-24.086134 -407.954884 2443.414497 50 39 38
-26.661825 -291.129494 2427.155685 95 82 104
-22.710352 -378.242278 2440.808105 123 126 132
-17.129435 204.615474 2256.532288 23 26 32
-27.923444 -193.205094 2424.572754 194 153 136
-18.919744 -419.360161 2443.607712 100 76 55
-28.528455 -223.878789 2438.819885 202 158 141
-27.095547 -249.341369 2445.795250 124 75 62
-24.761899 -201.275778 2426.916885 149 107 97
-17.069151 -394.795609 2444.201088 133 108 103
-11.220440 203.334069 2251.646042 132 198 225
-11.220440 203.334069 2251.646042 132 198 225
-14.883827 -370.569348 2439.472771 129 139 143
-19.085978 -208.181024 2423.714638 102 55 49
-18.906249 -208.054876 2423.050499 102 55 49
-18.906249 -208.054876 2423.050499 102 55 49
-19.887249 -230.577207 2441.540337 118 74 59
-23.336901 -139.892542 2435.976410 113 68 52
-10.671337 -366.528535 2439.701271 64 54 61
-7.474873 -397.816920 2447.193527 131 109 104
-6.722489 -417.033386 2448.110580 151 160 165
3.823753 190.282738 2228.587914 255 254 255
3.823753 190.282738 2228.587914 255 254 255
-6.568636 -368.095207 2449.204254 147 122 117
-2.279252 -432.854462 2457.101822 148 129 129
-3.300891 -681.655788 2540.271568 157 106 87
-3.600331 -658.751297 2536.119080 147 95 78
-0.873596 -455.688095 2464.008331 56 55 72
-7.918077 -239.603400 2462.097168 94 51 39
-0.822541 -299.613595 2440.881157 42 41 54
-7.272984 -202.808833 2456.986237 118 71 59
6.321613 -385.663581 2456.802750 109 114 121
8.044752 -404.369354 2460.976219 156 119 95
7.419097 -381.050253 2456.917953 69 45 41
1.428643 -202.110434 2451.876068 206 164 146
1.428643 -202.110434 2451.876068 206 164 146
0.625389 -209.517074 2465.677834 88 49 36
11.811479 -393.803644 2461.289024 138 119 94
10.733926 -356.119609 2457.405090 185 150 135
11.361900 -368.849277 2462.300110 128 136 145
14.614367 -452.174044 2473.755836 111 113 119
13.064632 -389.600229 2463.809204 105 78 56
11.374655 -401.949930 2479.512787 80 51 48
16.112027 -435.377550 2469.557953 62 66 75
7.660142 -150.277054 2445.377350 151 108 103
16.259415 -341.005278 2456.035042 134 156 161
16.393411 -333.384061 2454.625130 128 145 143
16.258150 -357.358074 2462.361145 188 154 138
16.100988 -275.287700 2444.827652 56 54 59
18.441373 -360.687566 2461.980820 178 139 127
18.441373 -360.687566 2461.980820 178 139 127
21.336661 -334.535766 2449.871254 76 85 88
24.568596 -463.030052 2473.394775 101 77 91
25.583544 -442.464304 2468.608284 139 142 145
22.460493 -343.481708 2460.738754 70 71 89
22.460493 -343.481708 2460.738754 70 71 89
26.522195 -429.102516 2466.935158 117 131 134
24.632049 -339.671755 2462.975883 133 153 163
30.061197 -423.508072 2470.842552 41 44 58
22.276852 -177.867711 2448.975182 124 94 97
32.188889 -443.637705 2475.205421 130 142 149
29.612795 -333.378601 2461.251831 66 70 77
28.307217 -262.640166 2455.046654 89 97 99
37.216347 -317.116356 2434.062576 61 49 56
35.279217 -386.256170 2475.038910 134 150 156
38.107231 -428.507233 2481.117821 52 37 36
33.422917 -247.392321 2453.334427 62 57 68
37.673163 -382.805872 2476.675034 37 35 39
37.049022 -342.191243 2468.124199 108 107 119
40.059760 -467.773199 2492.922401 165 123 121
40.747574 -480.149126 2497.610855 160 123 117
40.037352 -421.420765 2494.255638 141 109 95
45.347565 -429.733038 2498.236465 87 53 48
60.671926 -94.938236 2317.209053 134 116 126
47.334248 -439.916992 2497.751236 123 93 83
26.445234 531.895351 2318.232346 16 21 30
50.834697 -318.186593 2455.503082 52 41 50
50.500733 -263.033032 2469.522095 123 131 132
55.077869 -386.056948 2485.260391 90 74 75
54.758060 -370.912266 2489.202118 150 118 103
55.263358 -370.176744 2486.680794 150 118 103
61.086017 -460.775805 2499.660110 152 106 97
63.158435 -375.727987 2475.750160 185 148 128
58.775342 -256.927013 2472.075653 32 36 41
96.641701 -54.520601 2162.795067 141 112 99
68.013269 -307.403350 2442.375755 121 108 115
95.815468 7.925598 2150.026131 172 135 125
66.025031 -356.766701 2486.460304 60 65 73
72.377795 -380.879450 2489.885712 118 78 76
102.472854 -56.135559 2173.505020 34 31 41
102.038336 -24.344739 2173.891640 89 68 62
102.038336 -24.344739 2173.891640 89 68 62
72.608775 -263.820100 2459.236145 117 125 130
80.009729 -316.813922 2429.325104 38 25 27
77.837563 -397.438836 2502.332306 84 65 73
80.362183 -474.032450 2519.363976 85 48 72
78.806645 -392.497778 2505.310059 141 164 165
77.685457 -256.160426 2466.878319 27 31 37
107.972753 -7.037035 2166.672325 67 54 54
107.972753 -7.037035 2166.672325 67 54 54
84.306842 -464.132738 2515.003204 136 100 120
79.582399 -236.194682 2467.643356 60 65 81
69.957834 333.821559 2348.463058 50 36 34
85.502344 -372.777343 2506.797600 101 107 111
87.271273 -264.314389 2474.316406 117 110 115
91.489232 -427.131701 2508.030319 180 149 133
91.386038 -401.578760 2516.757965 52 35 43
94.644141 -460.908937 2516.829491 140 104 119
94.644141 -460.908937 2516.829491 140 104 119
71.302420 508.715916 2313.871956 67 47 45
98.301321 421.217394 2176.070786 125 95 81
-42.809978 -176.998353 3605.582428 133 101 92
91.279525 -345.301819 2503.744316 157 126 119
95.432889 -385.559225 2500.591278 30 29 30
96.664202 -430.254936 2511.361885 118 79 70
98.069859 -442.752552 2518.142891 195 157 148
97.168243 -382.134175 2502.272224 101 109 115
96.935755 -410.702467 2527.681732 107 68 95
80.308729 540.698862 2285.479355 31 22 27
105.111361 -466.495943 2527.888489 139 101 115
127.083802 11.124441 2184.518051 107 82 83
85.336024 300.121903 2387.153625 108 80 70
101.951098 -244.212198 2485.667801 143 155 156
107.228065 -454.059649 2537.218285 51 32 49
131.567204 -4.636578 2184.358597 72 60 56
232.857203 -39.215425 1280.588818 143 145 146
89.369881 336.600471 2373.898697 58 40 39
90.595102 307.111955 2380.440521 50 36 34
111.826622 -461.000729 2539.047432 128 92 113
111.826622 -461.000729 2539.047432 128 92 113
91.085404 393.357420 2361.842728 62 41 40
112.960637 -449.453068 2546.088791 88 55 58
60.933536 -110.329878 2917.269516 135 104 92
138.065016 -47.601050 2188.099098 139 108 95
112.454593 -229.979205 2495.108414 76 76 91
117.059994 -381.192064 2532.870865 90 59 55
117.078328 -393.759990 2538.836479 78 48 45
139.931262 -4.331351 2192.307091 102 77 72
114.294779 -250.906062 2501.181221 39 44 52
120.577598 -397.873950 2539.497566 137 108 105
144.822097 -37.696707 2202.937508 150 118 107
147.755122 17.801997 2153.647232 168 133 124
102.463734 426.186514 2358.975601 64 44 39
103.391671 512.524796 2334.590149 66 45 43
123.809862 -255.297995 2508.314133 129 133 133
125.635242 -231.475377 2508.138084 113 121 127
129.008317 -247.274089 2514.405632 46 34 39
130.984223 -259.185100 2516.906929 73 50 52
154.999638 5.840368 2208.315277 91 71 70
352.654409 -988.588810 3654.118729 62 54 72
133.475494 0.362782 2522.826576 169 131 118
355.715013 -1055.732441 3741.731262 102 108 115
130.199039 348.566699 2396.376228 111 80 69
159.857845 -569.169378 2601.473808 126 85 72
130.624783 436.292410 2377.717018 115 85 74
159.938991 -553.937721 2595.878983 122 82 70
154.370821 -194.419122 2480.817986 129 98 91
194.527626 -17.354313 1986.612892 57 44 45
159.650600 -307.799816 2501.624298 138 104 96
151.808453 -210.281682 2520.071793 41 33 35
134.765375 355.799508 2397.909546 49 36 34
153.388309 -251.548958 2527.439880 104 111 116
134.729624 355.462146 2398.928070 49 36 34
154.830527 -190.069985 2513.163567 66 68 72
161.001849 -296.067262 2534.192467 42 35 38
159.709382 -266.776752 2535.722351 44 33 35
135.754716 530.091286 2363.849831 57 40 39
135.754716 530.091286 2363.849831 57 40 39
142.472327 350.900578 2398.557091 101 73 65
181.676769 -39.518523 2229.982185 135 104 92
142.527032 438.445377 2382.134819 108 78 73
143.014276 525.899553 2363.516998 114 82 71
233.725262 12.751798 1651.181984 99 77 72
146.289158 474.915075 2373.904037 51 37 35
225.822520 3.909060 1798.883629 150 118 107
187.534344 511.960363 2014.023781 87 63 62
187.534344 511.960363 2014.023781 87 63 62
187.826383 -289.154816 2560.540962 153 109 95
204.873705 -35.803699 2248.108864 122 95 86
199.673331 104.736555 2232.686424 52 64 68
204.401708 10.128864 2245.029068 135 111 104
208.332825 7.281194 2244.393539 82 67 72
207.561803 -552.269793 2619.365311 195 151 133
198.645413 -219.052958 2552.695847 161 117 103
394.669056 -14.267342 1455.746651 139 93 80
215.029383 -462.553358 2603.203392 56 36 44
222.372818 -469.537973 2603.275681 150 126 131
222.028089 12.444229 2304.057503 97 88 120
221.172428 137.958992 2224.077797 91 104 107
224.033928 114.077902 2222.763634 26 31 39
230.245185 -416.361475 2611.574364 142 95 83
236.133194 101.369357 2234.036827 90 110 116
243.438196 -560.058498 2670.952225 186 140 119
236.588931 137.750494 2233.920479 93 107 110
239.520264 116.700113 2235.761261 25 33 39
250.971460 -645.261765 2685.968590 191 141 129
465.225697 421.024990 -805.314732 209 161 140
239.781499 133.334875 2248.838997 42 50 55
236.643124 -249.596524 2623.848343 33 21 19
252.042961 -557.763481 2671.498108 201 156 132
414.462566 -44.296867 1520.711899 115 84 77
414.462566 -44.296867 1520.711899 115 84 77
251.623845 -419.878197 2624.917984 140 92 87
247.845507 -293.171382 2595.808792 177 137 124
254.823971 -320.847535 2607.463074 90 70 84
266.589284 -627.123785 2692.758560 156 103 82
259.763384 -419.029188 2629.790115 142 97 84
249.398422 -184.787560 2604.558182 144 92 70
250.889373 -218.077588 2614.678001 199 155 135
400.954247 96.394533 530.506754 65 40 37
400.954247 96.394533 530.506754 65 40 37
259.629107 -380.534768 2621.083641 150 103 92
98.896402 -1615.545654 5656.759262 141 89 71
257.805037 -313.035750 2605.406570 125 96 91
259.399486 -335.912037 2612.759590 79 69 86
461.110306 -415.145350 2401.197052 156 107 84
239.751840 -296.226597 3467.326736 209 161 140
254.393911 -173.461246 2597.568893 212 168 150
256.106019 -212.299013 2612.185097 134 82 64
271.513653 -550.518847 2684.952927 141 89 71
249.252963 -11.836249 2579.227448 72 46 38
265.109444 -345.879197 2618.584442 90 76 87
291.621423 -426.917410 2339.048195 141 89 71
265.306878 -312.193704 2607.421112 202 155 136
490.340090 -695.491076 2824.390984 196 148 126
268.803954 -357.887101 2622.380447 189 147 132
249.600267 153.765810 2509.877205 153 117 105
499.536324 -696.105385 2823.170090 104 55 48
276.550341 -352.490282 2625.888252 64 50 71
254.052305 251.330781 2451.088142 61 44 35
327.608299 17.884102 833.449936 222 171 150
290.374541 -681.598043 2723.435783 144 91 76
254.749870 525.994873 2191.648293 93 78 97
282.110739 -407.590771 2641.711044 142 94 78
279.212093 -340.643859 2628.685760 138 95 83
249.320984 346.064973 2510.794258 65 40 37
281.705379 -353.890252 2634.366798 92 62 66
281.705379 -353.890252 2634.366798 92 62 66
274.595714 -216.455984 2630.528259 178 136 119
274.595714 -216.455984 2630.528259 178 136 119
259.740925 198.800361 2485.682678 156 116 99
283.423924 -371.345639 2637.370491 126 84 72
293.007755 -629.383516 2715.655518 145 93 74
254.241228 393.159699 2441.321373 63 40 32
291.760302 -519.031858 2682.349014 172 115 95
250.604081 494.972086 2470.889282 56 36 27
290.650296 -361.191344 2638.268471 201 154 135
509.789801 -667.475700 2753.783607 90 49 39
260.972953 382.722354 2478.639221 76 43 39
269.702268 188.897693 2516.847038 183 137 119
306.508422 -691.334009 2736.073875 145 92 72
269.029498 213.984156 2502.741051 174 133 117
284.764481 -171.267676 2624.533844 210 164 144
298.789644 -424.075222 2656.094933 130 91 80
289.139557 -183.758247 2596.572876 214 169 148
287.918067 71.508873 2315.263557 42 25 18
