ply
            format ascii 1.0
            element vertex 3323
            property float x
            property float y
            property float z
            property uchar blue
            property uchar green
            property uchar red
            end_header
315.372634 -201.287389 1086.673927 131 105 111
316.482449 -153.937364 1164.283562 124 97 104
313.070703 -43.524218 1196.832371 39 27 30
317.244172 -203.713989 1089.965534 96 65 78
322.006702 -294.586611 1104.129982 186 143 135
318.149328 -133.672261 1209.479332 36 28 32
319.067240 -128.553629 1210.783863 113 92 91
311.326575 35.228962 1183.547401 58 37 29
320.949483 -228.043175 1088.173962 73 55 52
320.524168 -213.279557 1091.859531 80 55 67
321.585608 -210.079312 1093.032169 130 104 117
322.246432 -166.136742 1144.659233 129 105 114
325.445056 -247.564435 1101.391029 103 72 59
323.597765 -205.053902 1095.956039 39 28 32
321.108770 -42.882764 1206.961155 54 38 40
329.008198 -289.063287 1111.632919 186 141 135
325.714278 -208.874750 1098.393536 123 98 102
301.172400 200.667262 917.264557 115 83 70
326.736140 -169.501233 1148.376560 127 105 113
328.050447 -232.494354 1095.694351 58 42 35
327.369761 -210.999632 1100.041199 98 65 75
327.369761 -210.999632 1100.041199 98 65 75
325.969434 -60.087103 1213.736153 40 27 25
329.128051 -208.492827 1104.675674 137 112 118
329.128051 -208.492827 1104.675674 137 112 118
331.159878 -234.688520 1099.828243 70 56 45
331.883812 -216.818380 1104.748917 143 119 125
333.333516 -211.092949 1105.755711 37 24 29
332.905245 -40.789983 1219.524765 51 36 38
337.858605 -106.602764 1226.632595 128 97 103
338.414264 -237.836957 1107.237244 47 36 29
337.744689 -216.488767 1111.229038 88 59 72
337.744689 -216.488767 1111.229038 88 59 72
309.037328 205.812454 899.259186 173 133 120
338.881183 -171.266794 1162.367249 106 85 94
342.767501 -277.626228 1117.536163 145 119 132
340.429759 -94.245815 1231.157112 122 95 94
344.195151 -289.705849 1122.032356 164 138 143
341.937447 -239.433432 1112.020111 52 38 36
342.485380 -221.588516 1116.893482 126 103 120
343.847394 -215.935874 1117.245197 37 22 29
348.071885 -282.903361 1126.480484 103 73 75
346.293092 -236.733389 1118.819427 43 32 24
346.571207 -244.840837 1114.466763 78 48 42
346.571207 -244.840837 1114.466763 78 48 42
347.053862 -97.510666 1236.379910 33 26 29
321.471047 195.016658 998.381519 113 79 75
349.908423 -269.963551 1130.562592 165 140 128
350.695705 -282.606220 1134.300900 92 59 57
351.337194 -286.832595 1136.073589 193 167 153
349.985170 -264.094186 1130.248928 157 131 126
338.417077 -182.475471 971.844673 98 65 75
351.587343 -253.616309 1127.011395 176 148 137
353.365850 -262.787914 1130.432224 58 38 30
353.124356 -155.749536 1203.112030 129 99 104
355.622029 -279.606819 1139.119911 51 33 25
355.622029 -279.606819 1139.119911 51 33 25
354.683614 -267.172432 1132.674217 179 155 139
354.533076 -259.738302 1133.131218 145 116 112
353.802609 -228.541565 1129.474449 88 60 68
355.357385 -88.415754 1249.346447 39 29 30
355.679727 -208.218694 1146.940994 130 104 121
358.143806 -260.274363 1136.505127 73 46 41
357.201791 -65.735126 1247.914886 48 35 37
359.422660 -274.859881 1139.557076 136 111 95
356.744552 -55.902034 1244.270992 50 34 37
358.283472 -252.060604 1135.693836 110 79 63
356.962633 -213.546395 1135.985565 48 38 40
344.169068 176.420045 1202.081490 40 24 21
357.210279 -40.771383 1240.216541 78 52 61
361.179614 -272.770667 1141.309357 80 55 44
358.274174 -37.206656 1244.826031 53 36 41
325.027752 211.564279 913.684940 103 76 67
361.804724 -265.194988 1139.759254 123 94 80
360.497856 -68.773419 1247.071075 122 100 100
361.706114 -252.324796 1136.819649 171 144 125
360.790467 -231.067991 1133.650589 125 94 104
362.943244 -259.462261 1140.588379 58 37 34
363.917065 -277.352047 1141.229343 199 174 162
363.175774 -86.193949 1251.061821 126 96 101
364.145231 -272.858810 1142.171574 174 152 140
361.202383 -38.398549 1246.401882 109 90 95
362.741637 -40.183845 1246.104717 79 52 59
363.801837 -36.422390 1250.324917 49 34 37
365.290952 -235.157156 1142.741489 128 101 108
366.315508 -221.235871 1142.685986 41 28 31
371.859789 -309.278059 1158.284092 159 122 116
370.932007 -247.747779 1142.536926 175 148 133
372.834349 -255.672264 1146.911144 193 166 153
373.833013 -143.496561 1220.172119 141 114 109
371.372294 -18.160348 1256.783581 119 94 95
371.372294 -18.160348 1256.783581 119 94 95
374.122143 -256.760240 1150.488567 182 149 141
371.347451 -1.475803 1254.416656 110 83 86
374.339890 -217.398500 1153.209114 110 85 94
380.477881 -307.951260 1163.416481 198 167 153
377.456665 -221.587801 1154.864120 42 26 33
377.456665 -221.587801 1154.864120 42 26 33
381.891704 -269.599056 1158.521748 136 104 96
381.891704 -269.599056 1158.521748 136 104 96
377.578211 -104.739833 1179.380703 70 52 60
382.708645 -279.485726 1160.013199 164 127 117
385.711312 -315.649915 1169.770336 135 102 86
385.222530 -301.816487 1163.474083 178 149 135
385.051703 -285.289025 1163.823700 215 183 170
385.107994 -284.720945 1162.426472 215 183 170
386.568260 -243.762422 1156.842518 189 163 151
391.770911 -294.159174 1168.995571 167 132 125
376.846933 184.381175 1229.701138 48 37 47
389.564610 -212.011695 1176.809025 36 30 35
388.976383 -219.895172 1166.639709 43 27 34
356.856799 199.908435 1005.892849 126 95 82
393.232894 -254.773951 1174.472141 215 185 175
394.750643 -269.019365 1174.193001 154 126 118
394.750643 -269.019365 1174.193001 154 126 118
393.484735 -249.850273 1167.470455 212 181 173
395.175409 -242.120409 1164.837170 171 146 130
396.618748 -216.564178 1169.625378 127 100 106
354.771352 215.876985 941.768742 104 75 68
401.039743 -208.729053 1189.507294 36 30 34
405.146837 -271.145511 1185.915279 80 48 50
405.382395 -247.481680 1179.889488 94 62 59
407.726812 -268.018866 1187.640572 178 152 141
407.735205 -95.038486 1247.929859 129 98 100
407.735205 -95.038486 1247.929859 129 98 100
413.501453 -312.745404 1201.894665 119 82 69
411.185837 -270.090890 1193.778610 103 77 72
403.065825 49.872553 1244.216728 124 101 104
409.228420 -208.245111 1190.706539 105 82 91
402.754688 86.843258 1238.888264 130 103 97
411.999893 -202.714682 1196.767330 39 34 36
411.523199 -239.655232 1177.536392 183 153 142
411.883307 -211.763883 1189.302635 44 29 36
419.283676 -307.525444 1209.681988 42 20 24
419.923115 -323.729467 1208.724785 162 134 125
417.525101 -268.775988 1203.224945 176 147 136
402.002001 148.198199 1225.530148 90 73 81
399.866986 180.057085 1216.770077 42 30 34
406.968403 80.533582 1239.972687 62 40 41
415.016651 -235.217834 1184.752274 102 75 60
406.692362 97.204918 1237.364101 59 37 38
418.487692 -246.488833 1200.400448 171 141 134
419.691420 -264.049578 1203.054905 173 147 134
419.283390 -259.843493 1200.460434 97 66 64
419.283390 -259.843493 1200.460434 97 66 64
406.470680 125.776696 1234.009457 55 39 42
370.599222 216.698790 958.924198 101 72 66
421.593237 -269.660449 1206.235981 70 44 54
419.735336 -202.320814 1201.026440 110 86 92
419.215965 -207.213140 1192.254734 123 99 105
417.900276 -10.643046 1242.412949 114 83 90
417.900276 -10.643046 1242.412949 114 83 90
421.590328 -186.571729 1207.577896 119 92 97
387.116313 203.857398 1065.097046 128 89 86
424.083805 -244.750476 1202.167702 75 49 44
422.560215 -195.348859 1207.192039 41 33 38
422.717953 -205.657339 1200.415516 43 29 30
379.623151 211.442828 998.426723 93 66 56
384.696150 204.528522 1033.263683 123 92 82
423.669100 -229.233360 1194.203854 115 95 77
424.666309 -79.502559 1253.361225 52 37 43
424.192286 -225.619149 1197.666550 32 26 27
421.155214 6.138029 1250.361347 45 30 32
414.432573 136.086345 1230.692577 155 123 112
377.443838 219.040990 965.207100 96 70 64
414.445829 144.499552 1227.050877 60 46 59
431.325912 -275.817275 1206.809044 74 50 49
431.129932 -265.455413 1205.220318 64 43 41
428.802729 -189.022410 1211.329174 41 30 36
416.099596 152.821648 1218.091679 104 81 94
452.754974 115.176558 1482.619095 63 40 49
433.913088 -227.110219 1204.955673 41 28 24
433.644199 -198.148251 1210.732174 45 29 32
431.361866 -18.815456 1237.134838 31 24 27
431.361866 -18.815456 1237.134838 31 24 27
431.361866 -18.815456 1237.134838 31 24 27
436.477041 -228.671193 1203.365612 126 104 93
441.852427 -272.111106 1216.035461 209 178 164
426.596642 148.485255 1225.642872 81 65 74
442.921925 -200.823760 1214.314365 132 108 110
443.490410 -188.884032 1219.763756 45 30 32
443.481588 -177.768958 1220.908928 41 35 36
444.857025 -218.341160 1211.916637 43 30 27
440.265512 12.295257 1248.121738 154 126 112
447.706652 -215.979815 1214.833546 44 33 25
443.964911 -25.368553 1234.935188 126 100 105
451.081467 -212.765026 1217.300701 40 30 28
446.302605 6.634576 1248.839283 54 39 43
452.841377 -178.434098 1228.801823 45 30 38
446.165180 87.217581 1239.448071 61 41 52
446.301317 96.430433 1239.629269 63 40 49
466.733503 -261.309862 1245.726013 207 173 168
461.264992 -166.881144 1236.466980 39 27 31
461.706305 -170.007348 1233.079052 118 95 101
463.256788 -178.487659 1235.022926 134 110 117
465.288782 -188.998842 1237.786961 44 27 35
456.527948 42.817819 1245.803642 47 31 37
465.067530 -108.009267 1249.499607 57 45 49
450.973129 148.576808 1226.906490 82 67 78
467.000723 -173.703861 1236.740303 130 110 118
412.305880 222.590828 997.325230 97 71 60
461.557961 -19.401662 1237.141132 31 25 27
467.689705 -140.799463 1239.481354 53 39 42
468.566990 -93.929565 1254.156590 66 47 52
479.161215 -290.899849 1265.760040 183 145 139
469.470310 -153.873646 1242.333698 41 27 31
464.468575 12.078738 1248.609447 164 129 116
456.826544 145.076931 1233.466816 44 33 40
453.007793 191.670775 1203.267288 174 134 122
463.734198 126.091647 1232.806778 157 126 112
463.838005 138.491833 1232.893181 141 112 104
476.109028 -32.503814 1255.385017 62 46 53
479.406548 -122.034848 1251.757526 112 89 91
470.547867 66.916090 1241.818142 60 39 49
475.184250 -6.737634 1248.968601 58 44 46
475.184250 -6.737634 1248.968601 58 44 46
482.880068 -144.315064 1254.295731 82 58 62
482.764387 -125.361204 1253.549099 41 28 30
476.719904 -18.074217 1244.703579 28 23 25
465.352249 151.208520 1220.610237 106 79 98
473.405886 61.750686 1244.025803 101 81 82
483.204460 -128.781378 1250.393009 112 90 94
463.441563 176.771319 1211.749458 115 98 101
469.109297 140.955150 1232.137585 68 45 50
353.854966 184.176767 583.484221 107 76 71
484.689903 -106.187272 1254.828072 110 86 92
484.059429 -96.025789 1252.050972 59 47 50
466.109085 173.266411 1215.885639 124 93 101
486.049747 -115.680707 1251.824856 121 95 104
488.134575 -109.198761 1255.869198 42 29 32
488.533306 -90.502620 1257.136536 106 82 88
488.155317 -79.212737 1253.420353 64 48 54
482.209682 36.283058 1243.569946 112 88 99
482.209682 36.283058 1243.569946 112 88 99
485.564184 -23.470284 1241.679287 111 88 92
485.564184 -23.470284 1241.679287 111 88 92
488.767242 -29.228678 1255.815315 64 49 57
492.545319 -92.946756 1259.120369 38 25 29
491.508722 -73.782098 1257.682705 110 87 89
467.880440 203.433633 1188.944817 182 142 129
502.597189 -154.259944 1268.110943 105 78 68
497.327805 -60.144663 1259.450340 42 28 33
493.327761 5.807604 1250.117207 111 89 92
493.041420 23.165728 1247.536564 102 81 90
498.235369 -43.275771 1258.562374 48 34 41
481.195450 177.821815 1215.362644 112 89 94
499.451971 -53.698087 1258.030701 123 99 111
499.451971 -53.698087 1258.030701 123 99 111
499.349689 -37.103733 1254.519176 120 96 107
455.622482 221.753812 1077.598763 100 72 66
492.693377 88.603848 1239.323330 109 86 93
498.030090 12.660201 1247.226810 115 90 100
504.359245 -37.424979 1265.746117 96 73 88
493.212605 119.476259 1235.601902 109 89 81
493.812084 113.071096 1234.964752 48 35 36
459.260416 348.750091 1103.017330 91 66 67
496.861935 85.335141 1240.374374 48 34 38
502.607918 38.971919 1250.385666 120 97 92
502.607918 38.971919 1250.385666 120 97 92
482.659531 211.957550 1186.495018 172 133 125
496.933222 109.719825 1235.053730 111 86 83
500.051355 76.741153 1239.102077 116 90 104
499.881887 99.033642 1238.686657 106 89 98
471.892452 222.150111 1120.463848 125 87 81
505.449390 53.350013 1246.771049 35 24 23
457.841206 229.421401 1047.640705 109 79 71
513.318682 -27.253374 1265.736294 51 28 33
507.614899 35.760799 1233.574772 132 108 118
496.365213 174.169385 1223.056889 144 121 131
496.365213 174.169385 1223.056889 144 121 131
503.747129 101.574957 1242.109108 83 62 78
491.422224 208.184528 1203.910637 124 95 97
512.562656 8.259686 1265.306377 47 37 41
494.751692 182.126057 1214.342022 82 64 58
502.209044 113.318384 1236.268806 41 28 26
518.651104 -59.720230 1272.493839 58 37 37
505.441380 118.621397 1239.332294 49 36 33
515.942574 12.824520 1265.586758 208 175 159
509.548807 68.016618 1244.887161 132 108 118
506.843901 114.902830 1237.749958 141 120 106
514.594984 40.633509 1240.878105 53 36 38
525.572300 -90.891987 1280.103493 199 166 149
526.705027 -101.552725 1281.969166 206 173 161
520.420361 -5.923407 1271.484947 108 81 77
473.376322 223.393393 1092.928028 114 82 71
473.376322 223.393393 1092.928028 114 82 71
527.454901 -29.610038 1288.252163 62 51 43
521.536207 25.555307 1268.562508 223 183 171
521.536207 25.555307 1268.562508 223 183 171
515.378284 101.597512 1251.913643 211 180 170
525.806761 -19.499080 1276.274586 172 145 138
513.873482 123.092782 1244.388008 138 85 72
513.873482 123.092782 1244.388008 138 85 72
516.290760 111.670661 1246.612263 146 108 104
516.152811 130.002451 1245.442486 251 243 240
519.757891 109.370017 1254.512882 134 107 110
519.757891 109.370017 1254.512882 134 107 110
516.205502 134.764493 1242.154884 153 114 119
533.403349 -76.573670 1277.360439 197 165 160
513.453245 156.113780 1231.334686 205 174 160
533.490753 -28.351089 1280.956554 74 51 41
535.274363 -25.791305 1289.295578 164 133 116
527.283812 50.877577 1266.140270 207 175 163
521.783161 113.997138 1252.295494 145 92 94
526.656389 51.011276 1259.698296 207 175 163
521.567106 134.695029 1250.414085 131 77 79
486.272049 224.654555 1105.745029 121 88 79
518.437290 170.656466 1224.137402 197 168 167
519.325924 207.795310 1233.377457 68 42 45
514.629555 217.449474 1199.755669 175 137 125
497.522116 225.724983 1117.600250 125 95 84
531.395721 193.720782 1252.261925 113 97 94
531.395721 193.720782 1252.261925 113 97 94
586.664677 -296.100974 1384.548473 223 187 175
536.309624 177.735949 1245.769215 192 160 156
571.555376 -91.725153 1336.417580 168 130 125
538.804054 202.486563 1239.614296 106 78 72
541.249704 178.714991 1244.907379 190 160 159
596.874380 -305.760407 1387.597942 150 119 129
595.911932 -287.393999 1380.862617 148 119 129
602.769756 -334.830117 1399.774361 234 197 178
602.769756 -334.830117 1399.774361 234 197 178
603.176308 -317.065382 1396.042347 233 194 178
585.328150 -130.474949 1354.463768 164 126 121
548.632145 182.497609 1251.526451 71 39 29
547.132730 218.594742 1246.507835 77 50 38
550.654030 187.024641 1252.488995 112 86 68
609.419823 -323.347092 1402.173328 158 120 129
591.617680 -134.242094 1349.599648 170 140 126
555.241108 188.887787 1257.811451 55 31 22
562.306356 177.577031 1283.836365 205 175 163
585.936356 6.678302 1338.556767 200 169 158
543.502569 228.431582 1195.209599 176 136 123
597.478104 -17.887065 1362.858772 209 174 161
567.417765 223.201847 1281.125832 81 58 49
622.667122 -257.549119 1408.085918 44 29 32
604.002094 -38.709420 1365.699100 196 159 151
610.150194 -92.192912 1377.174282 170 133 134
624.537706 -253.832030 1405.469990 84 73 73
599.804688 17.751643 1351.114464 118 95 80
602.555895 9.309790 1358.446789 67 57 46
600.402975 28.212786 1350.498962 165 129 114
588.736725 151.019645 1325.527382 212 179 170
615.860176 -71.416080 1387.638474 209 171 159
629.657602 -256.841350 1408.763027 89 79 73
598.115349 113.643169 1339.537144 213 178 168
582.089043 222.397161 1296.468067 130 106 98
582.089043 222.397161 1296.468067 130 106 98
583.216047 217.781329 1299.962330 69 44 39
606.520844 17.551386 1352.684784 130 109 97
611.549664 -9.330656 1365.775299 59 42 34
597.156715 154.746449 1331.019974 124 91 111
640.377378 -252.235579 1423.579407 100 80 78
613.140345 12.589562 1362.178898 31 23 21
598.787642 166.656876 1332.736397 170 118 108
594.447041 197.578287 1319.009304 73 59 52
594.177628 197.250402 1317.137814 73 59 52
590.090990 226.439309 1304.774284 99 70 69
598.983145 187.311554 1329.152489 105 66 69
645.670128 -244.108248 1432.423210 186 154 142
644.869566 -252.332687 1427.305794 70 53 53
597.688103 202.464604 1320.040703 121 109 106
597.688103 202.464604 1320.040703 121 109 106
629.200411 -106.944180 1387.184048 215 179 167
603.917837 170.672214 1336.528778 254 240 236
603.917837 170.672214 1336.528778 254 240 236
647.893858 -250.658107 1429.358101 91 74 75
604.114389 184.102833 1334.844971 254 238 232
323.147798 17.135988 228.217435 57 39 33
606.491899 177.701104 1337.537575 150 86 81
625.994921 -13.444556 1377.334595 138 112 117
653.445959 -253.502154 1432.566071 82 75 71
610.777664 172.905302 1341.186523 145 107 115
661.959982 -252.511144 1441.659927 99 84 82
611.036301 220.471883 1327.103806 77 52 47
670.273304 -251.351500 1450.402737 101 89 83
666.755438 -187.421834 1446.840382 209 175 164
689.790583 -281.281424 1510.512447 37 19 24
660.183477 -115.177870 1430.970383 209 178 163
658.570099 -108.688903 1424.103355 93 74 68
664.545345 -128.989804 1440.168571 213 182 168
617.211246 246.522641 1330.598354 76 54 44
693.272257 -344.814920 1506.070614 52 34 34
679.331350 -239.750910 1470.063400 209 177 161
-147.664618 88.882387 740.118361 195 153 139
-147.465694 59.804243 743.662548 197 155 131
-147.224128 45.334989 745.357132 194 153 127
843.679428 78.690881 -441.208029 179 142 128
-45.498154 -163.016725 698.155880 87 73 87
-48.003128 -235.069394 709.935188 148 123 126
-35.788593 173.739076 667.753744 106 86 92
-42.964861 87.076056 686.140060 134 107 100
-38.355517 -67.100304 697.432947 49 36 39
-40.753967 -222.887397 718.249655 149 131 142
-34.913617 95.945752 687.195778 54 38 35
-37.525335 -43.683895 703.993225 73 48 53
-34.646598 95.941728 686.976767 54 38 35
-78.426427 -77.095342 767.902660 114 100 102
-27.080303 161.963761 677.607489 61 34 23
-43.100071 88.610351 707.742643 130 111 115
-22.857900 178.498781 679.706860 75 58 71
-28.201321 -87.489253 716.133213 174 150 152
-28.201321 -87.489253 716.133213 174 150 152
-25.533539 -240.677452 735.397816 140 116 121
-21.442503 -64.656711 715.836096 46 33 36
-19.463006 -206.908464 731.275415 200 169 161
-19.416010 178.051805 704.476357 153 124 111
-87.963051 -122.984374 838.502884 41 28 27
-15.888602 176.129949 726.355219 113 88 72
-15.888602 176.129949 726.355219 113 88 72
4.145980 -247.766447 767.819786 162 127 115
10.811320 -235.274124 773.152590 210 176 167
-42.693886 135.685122 822.872543 135 108 100
17.218339 -218.283367 779.668236 158 123 114
22.758825 -232.454562 780.515957 114 85 89
24.581179 -217.335105 781.060028 62 45 54
25.693271 -201.510382 778.604174 24 21 22
29.564512 -235.514379 784.509182 144 120 129
-52.235776 38.918644 905.940628 62 36 28
-68.552423 32.756752 944.677448 55 29 19
34.014437 -190.113986 792.916107 67 48 63
-45.921934 39.376515 911.712933 228 155 136
-43.438607 32.935181 915.213490 55 29 19
38.269454 -243.551564 802.198887 58 39 47
38.269454 -243.551564 802.198887 58 39 47
46.709594 -246.483779 810.266685 140 123 132
54.473531 -252.203965 820.257854 120 97 111
57.761902 -256.809592 822.588825 53 37 45
57.761902 -256.809592 822.588825 53 37 45
59.818339 -214.883327 816.780472 49 33 42
62.260962 -209.523273 817.461586 115 100 124
63.642210 -211.339307 819.079590 70 52 67
62.718296 -252.655840 826.666737 34 28 29
62.819564 -260.853076 828.335285 55 36 41
65.696275 -246.394539 827.540970 130 110 127
67.275500 -256.083751 830.216122 114 96 107
67.763555 -249.709797 828.799915 39 31 30
69.732249 -249.417019 831.201363 93 84 89
70.643985 -248.058462 835.078526 43 27 31
70.643985 -248.058462 835.078526 43 27 31
71.561867 -218.735456 831.136513 82 65 69
70.471048 -242.283702 837.808704 135 116 133
72.392374 -227.989745 832.793999 67 49 58
81.412822 -237.612653 844.326973 59 42 47
81.715071 -237.449670 843.927002 59 42 47
83.229429 -203.463078 841.192722 44 32 39
85.594988 -232.399392 850.532150 127 102 109
91.056031 -264.790559 853.343296 139 123 126
90.628475 -192.551386 845.324516 140 124 141
94.670731 -169.795787 852.969837 88 62 71
103.097606 -160.802889 860.205936 87 60 68
106.062388 -226.487303 872.243690 171 137 128
106.378317 -156.489956 864.077759 84 59 67
113.076484 -178.027511 864.749146 131 109 120
117.711580 -190.813899 867.706299 203 169 163
118.986917 197.734654 837.497425 140 113 102
116.540909 193.871987 847.834682 64 45 41
126.664281 -271.587539 900.159836 173 133 129
126.664281 -271.587539 900.159836 173 133 129
111.329877 -0.329813 908.900928 115 93 88
112.788045 -0.456155 906.669235 115 93 88
131.101000 -270.645070 903.686905 179 139 133
131.856310 -88.155848 882.278728 127 105 115
134.579885 -269.991016 908.095646 169 130 126
134.975731 -157.829916 892.343712 194 164 159
135.854840 -157.316339 890.929699 194 164 159
135.363388 -61.325175 882.680511 88 62 70
139.218724 -269.647121 912.982368 175 137 132
141.853571 -126.148164 888.597393 110 91 94
136.688602 201.756501 847.819519 64 44 42
139.230990 -19.585647 879.825020 40 27 34
142.945254 -268.857336 916.297913 177 141 138
143.583465 36.269191 878.751945 149 126 130
144.872630 204.810786 849.269009 62 46 49
144.977808 204.732680 849.110699 62 46 49
145.411503 196.971118 851.938152 69 53 58
149.386537 -140.717363 906.461620 172 137 131
151.257646 -129.468298 907.070827 211 178 167
149.746895 203.292608 856.948471 62 44 41
155.460680 -64.727777 894.002533 114 98 96
156.165659 163.375390 866.800499 113 89 93
155.480587 134.601212 876.527309 138 125 113
163.634062 26.480153 900.554371 182 150 143
166.636324 -46.104890 911.717796 29 24 25
166.636324 -46.104890 911.717796 29 24 25
175.323176 -48.541036 920.868015 197 164 155
178.244495 -136.166704 935.188675 172 135 127
181.265068 164.899170 892.133141 108 88 86
185.513258 114.207792 913.382721 82 49 36
188.576663 108.125722 917.009544 165 119 115
188.576663 108.125722 917.009544 165 119 115
197.465897 140.528858 919.462204 115 103 102
211.960053 -247.756267 983.657169 160 143 146
206.054497 144.931841 923.814678 59 50 45
207.403255 150.332487 923.511696 141 115 104
212.598968 -82.272178 974.190235 201 169 162
209.490967 135.737145 936.251068 201 169 156
219.586325 -15.765236 960.807514 163 128 125
228.320742 53.117776 963.492298 177 142 131
231.307673 -52.192718 982.184505 175 143 129
236.750221 136.011767 917.857838 95 68 59
238.617015 -131.365335 999.513340 193 162 152
230.806899 93.976504 974.647808 193 161 151
234.960437 145.941854 946.358013 65 56 50
243.914342 -72.946322 986.274910 102 79 74
241.032386 -23.333684 988.410282 179 142 128
244.066310 -30.294397 991.112328 63 47 42
247.748780 -66.422951 991.434288 36 27 27
243.962574 197.953165 953.694916 58 43 46
254.232121 -205.051303 1023.075008 166 127 121
244.434834 21.797207 1006.547356 117 91 87
254.278684 -142.957723 1012.118530 67 48 42
247.538519 62.665021 985.554123 199 165 159
254.692817 -161.591578 1018.982697 117 80 65
256.933546 -187.995112 1024.009323 177 137 126
248.023343 124.458182 977.370548 194 165 163
254.808044 -64.365190 1001.306629 125 104 111
251.151085 127.571452 978.059578 101 82 100
253.298903 137.330592 980.785561 151 128 136
260.589051 -73.657584 1016.591358 69 53 70
258.710432 37.888902 1001.323986 52 38 36
256.849575 184.088671 968.193722 127 99 97
259.490633 62.759823 1000.850105 119 100 117
259.282088 118.874025 988.561630 142 122 131
263.090730 19.166589 999.605179 72 53 47
265.071201 -67.416465 1017.845726 78 54 67
266.646600 -100.018990 1023.707581 86 61 79
265.862417 -89.127135 1025.829792 171 149 153
264.825726 -43.526560 1017.676830 120 100 107
264.530587 -19.035427 1011.777115 77 54 67
263.026881 38.465348 1002.359962 132 110 115
263.261414 22.492968 1007.891178 156 132 132
265.673661 -38.996738 1025.004673 121 99 113
267.928171 -43.845713 1023.689365 67 49 61
266.441774 117.065132 996.441650 165 145 144
278.363109 -175.604820 1040.855312 154 127 127
273.450994 -47.028887 1035.856819 39 32 41
281.041598 -181.140220 1043.605232 77 56 59
283.490396 197.385621 904.129505 71 47 42
285.862851 -225.052214 1059.737682 214 179 171
286.593366 -224.332738 1057.545948 214 179 171
286.958838 198.739362 903.733826 154 119 109
282.384920 183.555090 952.956963 78 54 44
289.132118 -166.424251 1054.294968 52 36 43
286.962700 193.484890 934.666252 156 120 108
292.033958 -184.414697 1059.348011 105 77 91
294.472241 -172.830462 1061.028099 136 110 127
300.829530 -195.345485 1069.750977 98 69 80
304.302263 -213.977528 1068.779469 77 57 52
306.418085 208.619022 890.931416 101 72 66
286.244416 -58.748490 1191.951084 111 81 84
310.582137 -220.015264 1076.649189 67 48 48
290.555453 -47.329909 1176.508808 52 38 40
299.200916 -136.019051 1174.326324 73 56 64
293.844509 -48.038438 1179.454422 103 82 80
313.220668 -193.870854 1088.351536 157 136 137
313.777637 -189.032316 1088.758469 157 135 143
317.354202 -225.483251 1084.186935 68 49 49
317.354202 -225.483251 1084.186935 68 49 49
296.538496 -46.477517 1182.332230 47 32 35
321.362448 -270.594549 1101.299572 168 129 117
303.005743 -98.609853 1192.183208 104 70 69
320.345736 -198.751199 1092.442417 167 146 143
321.139669 -199.674618 1092.324257 145 116 124
314.167023 193.721795 963.033962 103 70 61
324.516582 -230.434680 1092.165184 64 45 40
322.226119 -194.992054 1095.977020 152 130 134
245.712852 440.752220 1571.407509 118 80 79
329.161263 -208.114028 1104.300785 132 107 116
330.118752 -204.763937 1112.621021 66 48 59
324.412465 204.668927 944.932270 105 74 66
321.369004 195.026839 999.487114 102 72 68
336.027312 -237.123537 1110.763645 66 57 59
339.142942 -213.818145 1114.657784 134 108 124
342.626595 -242.980051 1110.198116 143 118 125
342.298460 -225.032234 1116.783047 85 57 64
326.349854 -91.545004 1220.721245 45 31 29
324.776340 -43.621728 1211.483765 114 91 94
326.524806 -82.031351 1218.738174 44 28 30
342.505383 -212.746310 1121.994972 101 76 87
342.505383 -212.746310 1121.994972 101 76 87
334.559107 199.173248 985.336781 97 68 59
349.605489 -251.437640 1127.017021 119 88 72
352.146506 -302.822995 1141.398811 114 82 69
332.158828 -37.337336 1220.400047 116 89 93
355.605149 -279.677010 1139.297295 52 32 27
353.771544 -228.733420 1129.918766 82 55 67
337.651610 -43.918255 1220.951653 73 49 56
357.403231 -298.916960 1144.675636 198 170 158
355.873275 -256.503940 1135.183620 175 143 131
355.763841 -207.799864 1145.383358 125 101 118
342.524838 -42.220172 1225.719738 65 43 47
360.447550 -257.397175 1139.881325 147 121 114
364.020824 -299.312782 1149.277020 131 99 98
351.416349 -133.720005 1225.454712 46 37 39
350.739574 209.212542 969.358253 111 75 68
350.859571 213.581419 968.589306 95 64 60
366.119266 -230.708766 1142.776299 89 61 65
365.993285 -227.660561 1142.518997 134 103 108
367.937708 -246.782875 1137.078476 170 142 131
368.116236 -214.759421 1151.554680 38 30 33
357.230496 -77.144688 1250.611782 44 30 31
362.099075 217.630005 951.949501 101 74 65
381.886697 -269.381642 1158.501148 138 110 97
379.188967 -213.992953 1163.929081 38 31 34
364.933562 208.201861 984.430122 119 84 73
373.841000 -143.529379 1219.944286 141 112 108
385.289741 -305.938172 1166.848850 123 90 78
385.289741 -305.938172 1166.848850 123 90 78
385.712075 -315.436625 1169.405937 146 115 99
385.791278 -294.000173 1163.631153 182 158 141
378.510404 -94.433129 1168.913269 49 37 39
371.446872 -10.913008 1256.237793 110 84 84
386.348653 -216.646862 1170.909977 107 80 95
385.490441 -178.401959 1199.582577 28 22 23
373.293304 210.339308 992.493153 93 65 57
373.701739 210.039997 990.884876 93 65 57
370.325851 108.900416 1239.593601 103 79 80
394.710422 -269.608760 1174.130249 165 139 132
394.710422 -269.608760 1174.130249 165 139 132
390.499926 -188.696361 1189.319897 115 90 95
376.972127 206.193089 993.887711 171 131 119
397.383308 -252.180195 1173.874760 160 130 124
397.924876 -228.394079 1173.024559 160 130 129
402.214003 -307.969356 1196.226120 216 185 174
400.789452 -216.879010 1178.630447 49 35 38
405.360603 -247.656846 1181.260395 91 61 54
385.877347 147.548127 1228.269386 110 88 93
409.191179 -274.598408 1191.927242 189 163 149
408.979893 -249.239945 1186.751461 180 153 148
408.979893 -249.239945 1186.751461 180 153 148
388.194537 131.333899 1231.520176 109 81 91
411.125803 -270.119166 1198.492813 102 79 74
411.911726 -276.338935 1200.179291 100 69 62
409.429693 -218.358874 1184.313202 132 107 120
412.132311 -237.072635 1184.034157 177 150 134
391.503763 204.266453 1070.740032 104 80 71
393.581605 212.877369 1009.677219 95 70 62
414.363384 -220.231748 1191.452122 75 51 61
417.343140 -272.427583 1204.053020 119 89 81
416.381598 -239.996696 1190.473461 116 85 72
417.519522 -250.314331 1198.681355 83 52 41
419.211435 -207.198334 1193.079758 118 94 102
401.524496 145.528066 1230.578423 48 35 43
410.587072 -18.475457 1237.589645 44 31 33
402.020788 147.894776 1225.071716 86 69 77
424.193048 -225.693178 1198.480797 36 26 27
426.946354 -229.298210 1198.827934 143 115 104
426.149416 -213.559270 1202.987099 74 48 56
421.608734 -123.194468 1241.753578 84 63 68
431.332397 -248.320270 1202.856731 58 37 36
414.445496 135.867751 1230.948448 150 120 109
416.161871 152.063000 1219.299126 96 73 86
421.976233 50.649714 1244.207668 65 42 52
437.488031 -233.225989 1205.658913 141 118 121
417.233181 161.728072 1217.005348 100 75 95
442.659378 -309.606934 1223.545170 204 173 163
440.534735 -221.863985 1209.561539 38 26 24
426.042986 140.912676 1231.613350 96 75 77
426.608086 148.253930 1225.610352 79 65 77
447.229528 -226.141238 1216.533566 101 77 65
445.611095 -131.592727 1240.695095 129 98 91
440.267706 12.165149 1247.846127 153 123 111
451.753283 -118.779540 1247.214985 100 76 86
435.176468 164.113533 1052.201271 61 43 46
458.326340 -163.294828 1235.773945 117 90 93
456.958628 4.544906 1250.414085 47 33 36
466.616392 -182.642126 1239.047813 122 94 104
450.609970 139.868295 1232.072926 106 85 81
454.099369 145.702827 1230.188274 31 19 24
470.111084 -114.841461 1251.249313 137 114 114
470.111084 -114.841461 1251.249313 137 114 114
444.078732 227.473354 1032.233524 105 76 71
464.468098 11.988911 1248.484707 161 127 113
447.153997 220.284557 1067.657471 115 82 72
447.153997 220.284557 1067.657471 115 82 72
473.244476 -136.621654 1247.404289 102 77 81
473.533678 -145.290744 1243.708324 110 87 92
463.670158 126.491606 1231.930923 154 122 108
476.784277 -89.788741 1254.293060 141 118 117
476.784277 -89.788741 1254.293060 141 118 117
479.850578 -131.255257 1248.714924 113 89 95
479.819393 -111.895335 1252.037525 59 44 50
463.447142 176.647651 1211.767578 111 94 98
475.171614 -6.677810 1248.768044 55 41 43
452.997208 228.194618 1042.741013 106 77 69
476.727581 -17.891753 1244.983673 28 19 24
470.195866 109.571540 1236.607170 63 42 41
469.463015 136.050045 1233.709908 57 32 29
487.882137 -128.987813 1256.454277 76 51 59
482.883263 -11.666510 1250.144577 128 100 102
482.977200 -1.559310 1249.124718 137 116 119
482.157421 14.251463 1246.516800 109 86 96
482.205200 35.947916 1243.232346 110 84 97
485.286236 -23.512650 1237.043571 108 84 90
485.286236 -23.512650 1237.043571 108 84 90
490.483475 -100.082421 1255.434990 122 95 100
481.633186 61.855733 1238.987732 129 107 108
481.633186 61.855733 1238.987732 129 107 108
492.541027 -92.809153 1259.135723 35 23 27
478.222513 190.746069 1208.848286 65 46 51
495.588303 -76.339638 1260.677528 37 23 27
495.588303 -76.339638 1260.677528 37 23 27
495.588303 -76.339638 1260.677528 37 23 27
494.941664 -16.324835 1252.207184 37 24 26
488.309622 152.604485 1226.067924 34 22 22
488.159132 158.442581 1222.492313 44 32 38
497.784853 36.895761 1248.393631 42 29 36
496.853018 61.127472 1240.261173 126 104 104
497.181225 69.830966 1244.417286 44 28 34
497.181225 69.830966 1244.417286 44 28 34
501.722908 61.331618 1243.476582 122 95 102
511.524534 -144.588172 1273.289299 198 162 149
493.299007 150.070989 1224.752140 106 86 91
499.850464 76.464468 1236.308193 123 99 110
502.229357 64.276868 1242.557430 37 27 31
515.290976 -127.874160 1276.533890 190 160 142
496.177292 173.666072 1220.312691 119 101 118
502.325201 124.668682 1232.996655 86 58 54
511.158943 132.506394 1240.877438 90 53 52
515.577078 78.635353 1257.503033 197 166 152
515.366650 101.471245 1251.715660 207 175 166
513.813829 122.906220 1243.632507 121 71 62
521.523285 25.768888 1268.478203 217 180 166
525.805902 -23.225430 1277.062798 49 35 33
516.430998 116.677225 1248.093700 255 239 236
516.430998 116.677225 1248.093700 255 239 236
516.110134 129.850018 1244.904900 254 237 233
519.841671 109.487426 1255.460930 128 101 103
533.500910 -40.324053 1290.934753 213 175 164
527.239990 63.242841 1264.257336 206 174 162
532.612371 244.940019 1124.169827 61 79 51
576.690912 -95.428324 1342.589951 171 140 129
576.690912 -95.428324 1342.589951 171 140 129
592.916632 -255.738759 1387.369823 208 173 163
539.201307 240.118980 1130.797482 103 76 65
602.938986 -334.482145 1401.103210 231 192 177
602.619982 -279.221272 1395.084190 205 172 159
570.985508 185.312188 1300.792694 190 159 150
588.035679 37.941304 1337.733459 205 174 158
583.625650 141.030443 1319.480705 199 169 158
620.635414 -315.336943 1413.152313 147 119 129
596.400595 90.556365 1349.108505 202 168 158
598.965788 46.644464 1347.936058 175 137 123
598.767757 121.236861 1334.271717 125 100 118
599.143362 150.237465 1332.756805 116 96 114
591.685152 228.419471 1304.592133 136 113 106
631.826448 -252.674079 1412.700462 99 81 81
636.077499 -240.534925 1418.097019 186 153 140
646.833134 -286.572886 1467.065620 50 30 40
640.239716 -251.898837 1422.828102 106 86 82
613.469887 83.457017 1354.990578 149 126 114
613.469887 83.457017 1354.990578 149 126 114
632.852268 -133.238339 1409.804821 147 116 113
604.886770 255.671716 1316.261482 55 35 37
631.324577 -5.326595 1386.147976 120 98 104
632.323647 -12.036105 1387.083817 147 125 122
632.323647 -12.036105 1387.083817 147 125 122
633.981800 -9.017086 1385.153103 38 20 30
634.755373 -14.499627 1387.343884 32 16 27
611.320782 259.464097 1322.352982 65 44 47
619.989920 232.194686 1334.148884 121 99 81
655.610847 -126.449859 1429.442978 190 157 143
680.995607 45.469800 1616.176033 97 81 76
664.285135 -213.277555 1449.151897 148 107 105
664.285135 -213.277555 1449.151897 148 107 105
622.721577 247.930431 1335.979366 149 131 122
680.839634 96.169770 1609.066772 88 71 80
627.493858 231.289387 1343.525982 69 51 45
625.174809 253.085542 1335.678482 143 128 121
625.691938 250.416517 1336.722565 93 69 68
625.187540 256.508970 1334.891033 89 66 70
682.856131 51.760113 1602.410698 95 77 85
681.268454 126.278067 1606.796837 99 78 85
681.133366 168.920600 1601.073074 95 73 78
690.414381 46.376884 1618.008041 41 28 31
675.158978 -230.913377 1460.611057 159 126 116
679.161882 189.962780 1591.830921 105 85 81
666.812038 -116.785645 1433.095360 94 64 58
739.262247 -310.468149 1775.637436 94 84 73
670.964050 -130.399573 1441.844177 99 63 68
679.602003 227.865934 1578.574562 114 93 91
697.620344 31.753397 1623.818588 112 96 94
744.640350 -310.055900 1780.523872 40 24 20
-25.782812 -304.577112 740.258312 186 157 150
-108.208144 -53.312641 807.104492 24 19 22
-23.938991 -293.949819 740.211868 136 109 113
-22.063251 -295.310235 741.005802 140 109 106
-113.598156 -20.180370 821.743393 28 16 9
-106.478429 -46.329808 817.561054 30 21 21
-103.110933 -51.864290 820.033741 23 17 19
-112.373722 108.658588 837.792110 86 73 68
9.539243 -200.400758 760.814762 70 52 52
12.758671 -278.815484 781.307888 183 148 135
20.932932 -297.493458 784.729862 185 154 143
26.761732 -294.453073 789.385080 67 47 48
23.451585 -315.984535 794.383001 114 89 97
23.451585 -315.984535 794.383001 114 89 97
31.711999 -196.656835 780.181074 81 69 85
33.020675 -223.835278 793.215752 60 45 51
32.106662 -239.656377 796.114969 54 40 43
36.858654 -287.286544 800.957870 17 17 17
49.888423 -302.062702 809.531116 17 18 18
50.653338 -329.500771 823.040295 169 140 135
-42.797863 32.339951 914.565182 44 23 14
58.416420 -284.037685 821.612072 51 38 44
58.268714 -279.188704 822.151470 48 34 39
58.894479 -290.559173 822.257328 123 107 127
58.336580 -274.338722 824.148369 100 87 103
61.435902 -263.980722 822.024250 103 82 94
61.272776 -287.855673 824.027443 71 53 65
60.400796 -284.004784 824.923325 67 50 58
58.657229 -292.160249 828.639030 116 95 111
60.922545 -280.117249 825.541878 102 84 100
63.306516 -285.432076 827.192974 58 40 48
63.101482 -272.190595 828.652859 46 35 37
63.101482 -272.190595 828.652859 46 35 37
66.919881 -272.853065 829.602051 94 80 92
68.631178 -218.382430 824.420071 103 88 104
68.631178 -218.382430 824.420071 103 88 104
70.425683 -221.069026 825.601387 63 51 56
70.462912 -212.973237 826.805973 109 95 120
65.828246 -267.127800 836.086750 117 99 112
65.828246 -267.127800 836.086750 117 99 112
69.215518 -271.389008 832.689381 104 88 98
69.988590 -273.421264 834.366131 66 50 61
68.334728 -269.909477 836.631966 34 24 28
71.749473 -247.461319 833.668232 35 22 26
71.665800 -336.523390 840.144539 93 83 91
74.977499 -319.879651 848.760605 94 58 54
76.915783 -324.875546 850.439072 160 131 127
79.984063 -335.425019 848.915482 91 80 84
82.780796 -334.658718 850.114346 91 79 80
82.780796 -334.658718 850.114346 91 79 80
84.028912 -300.760317 846.816444 121 100 99
82.034558 -279.752660 848.292828 16 16 15
81.448436 -319.405341 854.995251 174 143 141
82.365412 -314.231277 853.835964 177 147 144
86.732692 -305.598450 849.440289 88 72 75
88.309616 -232.547307 844.112778 125 106 113
84.886366 -330.971622 855.236053 78 66 80
84.886366 -330.971622 855.236053 78 66 80
87.860900 -284.441662 848.508453 99 82 89
88.101524 -334.575367 857.905006 75 68 77
94.878983 191.979003 814.281082 153 123 104
91.604877 -285.323739 850.913906 60 46 48
91.604877 -285.323739 850.913906 60 46 48
90.966564 -333.526444 858.594894 78 71 75
91.557163 -207.030082 850.715446 77 67 77
93.703800 -190.340316 846.894646 25 19 21
88.750380 -291.798234 863.295746 106 84 92
94.704694 -205.563760 856.428051 179 145 139
94.704694 -205.563760 856.428051 179 145 139
96.193576 -276.912093 865.861416 109 87 105
99.178118 -165.277791 856.260109 81 56 61
101.237476 -264.413500 868.693733 182 154 150
104.076326 -332.168269 874.527740 71 65 75
101.197422 -304.358125 885.090160 171 138 130
113.560617 -182.546902 870.310020 62 72 72
115.437961 -329.690528 883.000088 76 66 74
114.808786 -326.645494 886.476517 88 76 92
123.224795 203.553700 839.617348 132 111 99
120.370829 -329.586577 890.455914 68 60 69
120.982909 -327.449965 892.305470 36 25 27
114.676154 -250.648117 898.590374 173 141 137
126.118886 -328.977966 895.224667 19 14 16
127.261400 -115.807462 880.644608 93 66 73
137.299800 -128.129780 885.442924 46 34 35
134.569943 -221.624398 899.081612 129 100 94
120.245683 -355.884123 934.288692 24 14 15
133.812559 -314.516449 909.807301 183 149 143
136.261058 -327.408171 907.392883 73 62 69
136.261058 -327.408171 907.392883 73 62 69
136.776006 -72.716939 885.504246 138 119 117
137.274039 -62.792069 884.262562 119 100 108
139.764619 -140.764153 894.771099 83 65 60
139.745188 -323.436975 912.474823 117 95 102
141.529071 -73.107344 889.396191 118 97 99
148.999310 175.493956 858.917236 68 50 44
144.725156 -21.651484 884.031677 92 75 84
144.846463 -326.093864 915.284824 77 64 67
151.257443 175.753212 860.450840 99 82 75
141.666663 -342.632890 924.588108 63 47 56
172.099268 -303.013134 873.186493 41 29 33
147.552371 -322.659993 921.250820 97 82 88
151.983559 -71.323961 893.606758 117 98 94
149.572694 -326.963711 924.249458 30 25 24
152.267456 -279.102349 926.173306 152 113 109
161.644685 -52.656507 905.975533 48 41 38
163.258600 26.617569 901.176262 161 130 125
163.933814 -20.958759 907.299900 175 143 131
164.091659 -38.016263 908.858109 164 130 116
164.693356 -12.244157 906.264114 173 136 123
164.984775 -4.877426 908.152962 92 74 91
171.627557 92.270947 900.704479 173 137 129
175.943601 37.041390 902.795410 185 150 139
178.425920 137.654626 903.769207 108 100 90
179.630661 113.447452 908.014488 68 37 27
179.176867 -263.640857 952.167702 156 120 112
181.101978 125.467849 908.939266 124 84 100
182.156849 -289.937043 957.052898 163 129 119
189.154398 209.264755 893.668365 61 46 44
185.279906 114.167309 913.853550 67 36 28
188.246953 108.080709 917.658138 147 102 101
189.661014 132.627690 917.346001 179 148 135
202.944207 -166.554749 963.938522 163 124 114
207.222748 131.509519 933.930206 170 137 132
213.329482 -191.718853 978.263092 214 176 163
218.169022 -286.250687 994.688225 167 128 121
218.169022 -286.250687 994.688225 167 128 121
220.944118 -365.238023 1007.200146 133 99 97
222.130299 0.867187 964.273167 142 109 96
224.846125 -297.212243 1001.784992 176 136 133
226.762438 -116.569710 981.355000 185 152 148
228.737140 -294.737768 1006.352520 164 126 121
228.737140 -294.737768 1006.352520 164 126 121
233.866048 9.581553 976.216316 172 137 131
235.776258 -40.431106 984.747982 153 119 108
244.856048 139.473867 944.286728 93 56 42
240.144134 -70.518333 990.302086 91 73 70
243.592501 6.397112 984.707451 59 36 31
244.118476 -18.670619 987.912083 111 81 71
243.163514 107.996607 974.303913 57 42 41
246.271420 149.376822 967.252064 61 49 49
248.869824 139.291275 968.817329 166 134 124
247.835326 41.309616 987.057972 182 148 137
247.835326 41.309616 987.057972 182 148 137
247.803712 41.127527 987.147427 182 148 137
247.803712 41.127527 987.147427 182 148 137
252.909160 -103.876662 998.408318 116 93 100
250.984430 -65.087628 996.784401 29 24 22
249.008846 1.066301 991.499805 149 118 109
251.801515 -64.934093 995.637608 29 24 22
247.841311 62.655878 984.828281 179 147 136
247.217751 129.666150 977.243996 179 143 131
249.403048 135.991275 972.982502 176 141 127
254.476023 -173.751342 1010.958195 201 166 153
256.840277 25.604409 993.425465 128 101 93
256.840277 25.604409 993.425465 128 101 93
256.840277 25.604409 993.425465 128 101 93
264.729548 -362.316561 1051.447964 169 133 123
262.660193 -117.967176 1021.906948 144 125 127
260.802484 85.547203 991.874599 75 52 47
266.442680 -364.145494 1055.909920 167 130 119
266.756248 -363.881207 1055.417252 167 130 119
263.343072 38.550386 1001.529408 114 93 100
265.220594 -107.205713 1024.748230 134 112 122
264.270616 31.522337 1002.886105 66 49 52
263.113809 56.519538 1002.744389 129 107 120
263.828874 45.049751 1003.605652 58 43 54
282.530117 189.966965 935.947990 57 38 32
269.451880 -116.434634 1028.739166 77 54 65
271.690416 -124.353814 1031.919384 60 46 57
271.690416 -124.353814 1031.919384 60 46 57
276.245356 -139.232206 1038.250828 46 33 37
271.617246 -45.701671 1037.094879 38 29 34
277.931476 -142.941546 1039.368916 109 86 100
280.165315 -230.769181 1051.523685 141 112 115
270.390391 -61.542505 1049.850941 135 109 112
270.900202 -59.286076 1052.940369 139 116 120
281.971407 -153.430641 1045.942879 42 33 37
261.967444 89.377838 1063.007355 167 150 152
284.501100 -160.383558 1049.468040 74 52 63
284.052444 -145.164382 1062.166595 160 139 138
283.476472 -141.085899 1064.316750 71 56 65
291.809273 -184.466231 1060.000610 87 62 75
291.496944 -219.999146 1072.461510 93 73 71
288.953829 -155.379081 1076.336193 68 53 56
299.674940 -237.238955 1070.802021 176 139 132
301.404405 -210.305524 1064.545822 59 41 40
271.918607 -97.484237 1134.235954 75 62 71
300.776052 -195.354629 1069.912148 88 64 71
313.786769 193.845725 964.175224 92 62 57
284.655714 -122.961223 1122.208786 139 112 124
305.745316 -192.033923 1072.907066 116 94 107
313.927555 201.175117 963.052273 93 62 54
305.678988 -270.936036 1090.671158 198 164 155
301.248956 -175.916779 1084.107780 131 106 117
310.957503 -236.982822 1080.200672 95 73 63
274.293542 -50.891328 1158.735180 90 71 71
310.192633 -204.901838 1080.933666 75 52 61
304.620194 -169.198835 1099.041939 120 94 104
292.524958 -135.716724 1132.566452 148 123 120
293.169355 -145.652640 1132.859421 68 55 59
293.169355 -145.652640 1132.859421 68 55 59
335.156965 218.217397 924.485588 77 50 42
281.808329 -48.213100 1167.124557 29 22 23
321.691275 -342.946315 1111.457443 184 147 135
286.007833 -51.423806 1167.442799 112 86 84
320.408201 -213.538933 1092.903137 71 48 61
282.294869 -254.670572 1234.941769 108 87 106
326.325679 -361.649370 1115.722561 187 151 143
302.609849 -145.771790 1145.417786 133 109 114
326.931477 -345.202518 1116.331291 181 144 129
286.457062 -255.752587 1244.272614 72 51 58
329.088831 -328.907657 1117.457390 171 130 118
332.523799 -243.374324 1100.453186 89 70 63
335.093999 -337.241483 1118.902493 60 38 33
335.193157 -308.581042 1115.263557 66 44 39
334.291983 -253.272367 1107.468700 50 35 30
340.346074 -374.909663 1131.219387 180 144 136
335.244489 -208.130574 1111.871529 51 42 50
340.899038 -252.590537 1107.615757 129 105 112
341.335702 -338.481188 1129.787254 118 93 98
345.078063 -353.059125 1125.127888 122 100 101
302.720332 27.982545 1177.784729 255 190 172
302.484083 41.215333 1175.833607 255 190 173
302.431440 47.105661 1175.879002 66 40 31
344.456744 -372.877598 1136.544323 174 133 121
345.953465 -382.703972 1140.110874 171 136 122
347.726464 -353.258419 1127.412510 35 25 24
344.471097 -242.532897 1111.252403 136 113 118
343.094873 -212.107205 1119.660091 89 66 76
348.876858 -343.916249 1134.529877 23 20 21
346.121883 -250.776291 1121.402740 62 42 41
346.060944 -289.550495 1133.664227 138 115 110
346.060944 -289.550495 1133.664227 138 115 110
346.862125 -274.830794 1131.406403 94 71 70
346.928191 -264.411688 1128.432369 139 114 110
347.856617 -253.040385 1124.690819 143 118 111
349.156928 -246.740198 1118.725681 157 135 127
348.413444 -267.774105 1130.407047 83 59 58
347.650051 -221.071315 1122.541714 72 51 58
349.676228 -279.265618 1132.830715 161 136 132
348.712659 -228.951263 1123.270893 114 88 101
348.528099 -217.688704 1122.169971 117 92 89
351.544333 -239.491177 1120.353031 109 88 73
357.511973 -377.375603 1139.550304 123 100 105
351.687598 -273.205304 1132.877827 113 84 79
353.820562 -254.262543 1124.657345 165 141 136
351.052284 -216.286492 1126.173782 104 83 92
353.115106 -263.138533 1132.494926 48 33 30
352.621412 -222.070312 1128.448963 109 87 101
354.588795 -267.554307 1134.264374 165 139 128
356.551409 -309.738660 1141.796017 188 159 146
369.950819 -201.200223 1066.486549 29 20 22
356.464410 -270.859361 1139.029312 81 58 50
357.385135 -316.073084 1148.789024 115 86 82
357.093501 -222.935009 1132.503510 103 82 94
359.377098 -244.663548 1130.002403 124 102 86
359.619141 -263.556933 1138.625050 135 111 98
330.439901 -120.354545 1214.806366 96 74 78
327.541542 -41.898170 1212.914658 36 26 28
330.633378 -53.804052 1217.403793 125 97 107
391.195488 -187.540209 1017.197704 108 89 107
362.282109 -217.106891 1144.481850 107 90 92
332.290912 -44.902611 1214.790440 67 45 50
368.111944 -332.132530 1162.388039 116 86 82
363.004661 -213.740206 1147.984123 29 25 27
366.195202 -221.640921 1143.155861 33 21 24
370.612001 -343.666148 1165.625954 156 133 127
